ply
format ascii 1.0
comment https://github.com/mikedh/trimesh
element vertex 1133
property float x
property float y
property float z
property uchar red
property uchar green
property uchar blue
property uchar alpha
end_header
0.00455168 0.05665397 0.05317288 0 0 0 0
0.06171320 -0.02681964 0.12015605 0 0 0 0
-0.04348501 -0.00933175 0.12073922 0 0 0 0
-0.06210346 -0.00655067 0.14320835 0 0 0 0
-0.03849891 -0.00272718 0.12610139 0 0 0 0
0.07802185 0.01536476 0.03125182 0 0 0 0
-0.03537114 0.00020357 0.12987059 0 0 0 0
-0.04923856 0.06805828 0.01112584 0 0 0 0
-0.01526736 -0.08408076 0.00251146 0 0 0 0
0.05680466 -0.08771907 0.14981623 0 0 0 0
-0.08061578 -0.02053822 0.03478027 0 0 0 0
-0.05460828 -0.01740622 0.12019033 0 0 0 0
-0.00509785 -0.11147485 0.14168085 0 0 0 0
-0.05343282 -0.09386490 0.17008269 0 0 0 0
-0.04980103 -0.01173795 0.12650611 0 0 0 0
-0.02523320 -0.05616762 0.00004170 0 0 0 0
-0.03880561 -0.09978043 0.12929909 0 0 0 0
0.00457188 0.00026783 0.21001489 0 0 0 0
-0.06086463 -0.06123356 0.00290710 0 0 0 0
-0.05921818 -0.02269739 0.12026544 0 0 0 0
-0.04586737 0.03401144 0.00004129 0 0 0 0
-0.05717531 -0.08676754 0.21010318 0 0 0 0
-0.00557440 -0.00352094 0.11017362 0 0 0 0
-0.05867134 0.01700262 0.06319621 0 0 0 0
-0.06233585 -0.02768801 0.12011611 0 0 0 0
0.02332443 -0.11221161 0.17991820 0 0 0 0
-0.06615791 -0.06593939 0.11988579 0 0 0 0
-0.06242049 -0.06433502 0.23821755 0 0 0 0
-0.04726058 0.01669550 0.07285736 0 0 0 0
-0.06839042 -0.05568573 0.11994410 0 0 0 0
-0.06809126 -0.04571682 0.11985703 0 0 0 0
-0.06581499 -0.03586495 0.12009326 0 0 0 0
0.04121316 -0.02518593 0.27611575 0 0 0 0
0.05939079 -0.01118599 0.26513779 0 0 0 0
0.05877842 -0.01649956 0.26442960 0 0 0 0
-0.04586257 -0.09541481 0.13007693 0 0 0 0
0.00428469 0.05176335 0.05692507 0 0 0 0
0.06250348 -0.02598229 0.13024577 0 0 0 0
-0.04629727 -0.00564734 0.12909713 0 0 0 0
0.07785130 -0.01595076 0.04993841 0 0 0 0
-0.06253599 -0.06313808 0.06022048 0 0 0 0
-0.04461223 0.00003230 0.13205829 0 0 0 0
-0.02581337 -0.10743380 0.14003395 0 0 0 0
-0.07987285 -0.02851210 0.02022472 0 0 0 0
-0.03996096 -0.10044368 0.13741869 0 0 0 0
0.00460098 0.00026950 0.22004791 0 0 0 0
-0.06091834 -0.06108004 0.01020861 0 0 0 0
-0.05970602 -0.02212019 0.12786588 0 0 0 0
-0.06109667 -0.02028506 0.13412397 0 0 0 0
0.00442883 0.01200875 0.08755172 0 0 0 0
-0.06691769 -0.06588814 0.12984599 0 0 0 0
-0.06525646 -0.06586478 0.22987755 0 0 0 0
-0.04489119 0.01266932 0.07842588 0 0 0 0
-0.06873381 -0.05589515 0.13007399 0 0 0 0
-0.06841478 -0.04580923 0.12997571 0 0 0 0
-0.04616119 -0.09707787 0.13991283 0 0 0 0
-0.02587262 -0.10917638 0.14979619 0 0 0 0
-0.04534128 0.06323546 0.02969048 0 0 0 0
-0.02617579 -0.00164465 0.10357715 0 0 0 0
-0.06487633 -0.05530550 0.00230785 0 0 0 0
-0.05925370 -0.01384133 0.13685018 0 0 0 0
-0.07409179 -0.05595782 0.17007500 0 0 0 0
-0.05514993 0.00005809 0.14056493 0 0 0 0
-0.03268609 0.00012461 0.12432112 0 0 0 0
-0.04223164 -0.10191994 0.15047924 0 0 0 0
-0.06161182 -0.00012423 0.14385402 0 0 0 0
0.03787801 -0.09998644 0.12881371 0 0 0 0
0.00457714 0.01691910 0.08286830 0 0 0 0
0.02166606 -0.11152425 0.19817327 0 0 0 0
-0.06777229 -0.06604404 0.13990210 0 0 0 0
0.06822634 -0.01611788 0.25349489 0 0 0 0
-0.04718479 -0.09783201 0.14970103 0 0 0 0
-0.03550144 0.00027484 0.24990594 0 0 0 0
-0.06961694 -0.04585959 0.13987952 0 0 0 0
-0.02519722 -0.04540574 0.27729294 0 0 0 0
0.00418973 -0.10686721 0.12001976 0 0 0 0
-0.06833380 -0.03562533 0.13990185 0 0 0 0
-0.03544638 -0.00022053 0.27950379 0 0 0 0
-0.07051629 -0.04410629 0.14551185 0 0 0 0
-0.07015412 -0.03495680 0.14638837 0 0 0 0
-0.06159039 -0.08186708 0.15099014 0 0 0 0
-0.03589593 0.00500765 0.09050700 0 0 0 0
-0.04316605 -0.10249997 0.16022864 0 0 0 0
-0.02846306 -0.11031912 0.16970105 0 0 0 0
0.04601767 -0.02621363 0.27318978 0 0 0 0
-0.04803613 -0.09832888 0.15971239 0 0 0 0
0.07408705 -0.01590831 0.00004153 0 0 0 0
-0.06109764 -0.06161964 0.03065535 0 0 0 0
-0.02438809 -0.11219179 0.17989698 0 0 0 0
-0.06882381 -0.06616668 0.15014581 0 0 0 0
-0.07167799 -0.04605617 0.15028973 0 0 0 0
-0.07187311 -0.03601296 0.15129611 0 0 0 0
0.03512628 -0.06769925 0.26305720 0 0 0 0
0.00455717 0.00652217 0.09266197 0 0 0 0
-0.07163490 -0.02629768 0.15253298 0 0 0 0
-0.07126142 -0.01674221 0.15367432 0 0 0 0
-0.07090575 -0.00846253 0.15442073 0 0 0 0
-0.06710201 -0.00568203 0.14966284 0 0 0 0
-0.00556697 -0.11545940 0.17986625 0 0 0 0
-0.05126353 -0.09126808 0.13274594 0 0 0 0
-0.06506661 0.00015699 0.15072827 0 0 0 0
-0.01534746 0.02427638 0.00004131 0 0 0 0
-0.03470616 0.00063087 0.09695492 0 0 0 0
-0.04350569 -0.10306144 0.17007156 0 0 0 0
-0.06181200 -0.08273818 0.16027954 0 0 0 0
-0.04822623 -0.09885751 0.16989377 0 0 0 0
-0.04580150 0.00026443 0.19032657 0 0 0 0
-0.06945718 -0.06741564 0.15955345 0 0 0 0
-0.07393897 -0.04614950 0.16008711 0 0 0 0
-0.02580230 -0.09595603 0.09002338 0 0 0 0
-0.07459112 -0.03596683 0.15982731 0 0 0 0
-0.07376255 -0.03575975 0.06998549 0 0 0 0
-0.02881193 -0.11019865 0.19050232 0 0 0 0
-0.06956735 -0.05606312 0.14011708 0 0 0 0
-0.07471167 -0.02576457 0.15998740 0 0 0 0
0.03433117 0.00026613 0.20011289 0 0 0 0
-0.07429583 -0.01589509 0.15978366 0 0 0 0
-0.03658466 -0.08866823 0.24333267 0 0 0 0
-0.06204350 -0.08338508 0.17012385 0 0 0 0
-0.06811733 -0.03579261 0.10020299 0 0 0 0
-0.07389761 -0.00581869 0.15985040 0 0 0 0
-0.05337184 -0.07358190 0.06036831 0 0 0 0
-0.04576041 0.00026609 0.20014098 0 0 0 0
-0.06998304 -0.06877069 0.16939165 0 0 0 0
-0.04599813 -0.01627724 0.00004153 0 0 0 0
-0.05364801 -0.09407866 0.17982264 0 0 0 0
0.07106259 -0.05612970 0.15011205 0 0 0 0
-0.05489210 -0.06544784 0.00224570 0 0 0 0
0.06984288 0.03031490 0.03624602 0 0 0 0
-0.04361796 -0.10302968 0.18999960 0 0 0 0
-0.07615791 -0.04608908 0.17011726 0 0 0 0
-0.03478931 -0.08426768 0.24913259 0 0 0 0
-0.06238336 -0.08352100 0.18007380 0 0 0 0
-0.07752100 -0.03597824 0.17000097 0 0 0 0
-0.06659205 -0.03587801 0.11013207 0 0 0 0
-0.07882211 -0.00604368 0.16995881 0 0 0 0
-0.05319571 0.04167016 0.04731089 0 0 0 0
-0.06707280 -0.07596421 0.17999446 0 0 0 0
0.07481667 -0.02575426 0.16006450 0 0 0 0
-0.07011099 -0.06961524 0.17949753 0 0 0 0
-0.05351382 -0.09400384 0.18982221 0 0 0 0
0.07155037 0.03305773 0.02909226 0 0 0 0
-0.04329761 -0.10242687 0.19970164 0 0 0 0
-0.07012530 0.03807340 0.02347949 0 0 0 0
0.06422687 0.04403485 0.02991846 0 0 0 0
-0.07236765 -0.06476681 0.18012474 0 0 0 0
0.01409912 0.00025931 0.16016883 0 0 0 0
0.03356946 -0.08452106 0.24966532 0 0 0 0
0.04519099 -0.00530030 0.12849037 0 0 0 0
0.06334029 0.00023236 0.15046284 0 0 0 0
-0.06128700 0.05968228 0.00210948 0 0 0 0
0.08007772 -0.04375212 0.19978072 0 0 0 0
-0.07959248 -0.03643478 0.17949168 0 0 0 0
-0.06195518 -0.07335941 0.11028413 0 0 0 0
-0.01558703 -0.08479383 0.01014052 0 0 0 0
0.05734658 -0.08828074 0.15992682 0 0 0 0
-0.08089991 -0.03291374 0.18344933 0 0 0 0
0.00423818 0.00020736 0.12095256 0 0 0 0
0.07810529 -0.02614365 0.16886467 0 0 0 0
-0.07015663 -0.07002747 0.19010973 0 0 0 0
0.05349506 -0.07526985 0.07025197 0 0 0 0
0.06587154 -0.07584544 0.15991724 0 0 0 0
-0.08227551 -0.00574335 0.18004937 0 0 0 0
-0.07242110 -0.06530593 0.18992095 0 0 0 0
0.00433887 0.00025411 0.12967452 0 0 0 0
-0.06993581 -0.06946741 0.20084020 0 0 0 0
0.01445840 0.02766363 0.07375963 0 0 0 0
0.04177380 0.06073769 0.03723681 0 0 0 0
0.06183808 -0.08413776 0.18982388 0 0 0 0
0.04986106 -0.08156685 0.08280748 0 0 0 0
-0.07155150 -0.02448573 0.24668136 0 0 0 0
-0.08320156 0.00017347 0.19040279 0 0 0 0
-0.08204994 -0.00594579 0.03018598 0 0 0 0
-0.02672119 -0.09970044 0.23244870 0 0 0 0
0.02383187 -0.08232715 0.00289018 0 0 0 0
-0.04565111 0.00027376 0.22005220 0 0 0 0
0.00436795 0.00025584 0.13970040 0 0 0 0
0.07834774 -0.02663925 0.23232396 0 0 0 0
-0.06933172 -0.06829552 0.21038045 0 0 0 0
0.00452527 0.06291775 0.04827234 0 0 0 0
0.07973982 -0.02520397 0.17373988 0 0 0 0
-0.06119996 -0.07124971 0.09219708 0 0 0 0
0.05838877 -0.07985064 0.11880981 0 0 0 0
0.04765943 -0.08932931 0.23134078 0 0 0 0
0.06440014 0.05417569 0.00998179 0 0 0 0
-0.08168854 -0.03554072 0.19998832 0 0 0 0
-0.05973633 -0.07964430 0.22109194 0 0 0 0
-0.06260023 -0.07418356 0.12029910 0 0 0 0
-0.01571608 -0.08529554 0.01999028 0 0 0 0
0.03408124 0.06334188 0.03958999 0 0 0 0
0.05492367 -0.08647682 0.12992164 0 0 0 0
-0.08146037 -0.03464438 0.19041249 0 0 0 0
0.05264873 -0.05502838 0.25919989 0 0 0 0
0.06680318 -0.07665917 0.17994311 0 0 0 0
0.05185107 -0.07317860 0.05040105 0 0 0 0
-0.08535285 -0.00585038 0.19996779 0 0 0 0
0.07979741 -0.04265902 0.20957747 0 0 0 0
-0.08021847 -0.03916646 0.21093534 0 0 0 0
-0.06153948 -0.07224812 0.10098122 0 0 0 0
-0.08148526 -0.03456185 0.20940238 0 0 0 0
0.00439743 0.00025758 0.14986397 0 0 0 0
-0.06819970 -0.06638854 0.22008866 0 0 0 0
-0.05854173 -0.08819906 0.19003193 0 0 0 0
-0.08308835 -0.02597962 0.20997876 0 0 0 0
0.06921365 -0.05758166 0.13700671 0 0 0 0
-0.04809771 0.02708738 0.06327359 0 0 0 0
-0.08098181 -0.03285041 0.21673132 0 0 0 0
0.03443226 -0.02598195 0.00004160 0 0 0 0
-0.08502074 -0.00611543 0.21001461 0 0 0 0
-0.08344879 0.00003158 0.20990106 0 0 0 0
-0.01559623 -0.08784010 0.04001892 0 0 0 0
0.07824956 -0.04753070 0.21024926 0 0 0 0
-0.04960365 -0.07943694 0.24315110 0 0 0 0
0.00442731 0.00025935 0.16016808 0 0 0 0
-0.07095133 -0.02003262 0.07612427 0 0 0 0
-0.03688751 0.04682228 0.05313587 0 0 0 0
0.06147631 -0.08370707 0.19965266 0 0 0 0
-0.08032914 -0.02895189 0.22344224 0 0 0 0
0.05141462 -0.07325222 0.24810588 0 0 0 0
-0.08182679 -0.02562243 0.21935785 0 0 0 0
0.03438023 -0.00549799 0.12051342 0 0 0 0
-0.08084632 -0.02272913 0.22565679 0 0 0 0
0.02483725 -0.00381229 0.11891555 0 0 0 0
0.06968579 -0.04669429 0.09852792 0 0 0 0
-0.04478742 -0.07586348 0.25144568 0 0 0 0
0.00445608 0.00026103 0.17008868 0 0 0 0
-0.08367480 -0.00602198 0.21996908 0 0 0 0
-0.08296238 0.00003183 0.21946692 0 0 0 0
0.08452675 -0.00591372 0.19011571 0 0 0 0
0.02377010 0.00018905 0.12269270 0 0 0 0
-0.05873688 -0.06777906 0.24131155 0 0 0 0
-0.02585828 -0.00008181 0.28162655 0 0 0 0
0.06948146 -0.05193818 0.09841823 0 0 0 0
0.01428791 0.00025408 0.12967514 0 0 0 0
-0.04923349 -0.06900020 0.25347319 0 0 0 0
-0.08167055 -0.00601109 0.22818819 0 0 0 0
0.02451714 0.00025757 0.14991108 0 0 0 0
-0.05414074 -0.06505873 0.25043795 0 0 0 0
-0.03732011 -0.07946174 0.02957608 0 0 0 0
-0.08153267 0.00000071 0.22820592 0 0 0 0
-0.01598769 -0.09840497 0.09001844 0 0 0 0
0.01422636 0.00156176 0.09858131 0 0 0 0
-0.04478229 -0.06532710 0.25941986 0 0 0 0
0.02408645 0.00026271 0.18014535 0 0 0 0
-0.05132759 -0.06203727 0.25607780 0 0 0 0
-0.05324618 -0.05478795 0.25820267 0 0 0 0
-0.07588761 -0.01592411 0.24076109 0 0 0 0
-0.06552862 -0.05613436 0.24001934 0 0 0 0
0.02473155 -0.06606420 0.00004180 0 0 0 0
0.04456841 0.03414930 0.06020602 0 0 0 0
-0.04517551 -0.04558283 0.26862231 0 0 0 0
0.06849254 -0.05605825 0.11005475 0 0 0 0
-0.04504112 0.02323219 0.06882014 0 0 0 0
0.06450088 0.03435051 0.00004125 0 0 0 0
-0.07169544 -0.05358022 0.22823210 0 0 0 0
-0.07209695 -0.01557200 0.24764708 0 0 0 0
-0.06891398 -0.00606456 0.25296921 0 0 0 0
-0.06595606 0.00022883 0.24976283 0 0 0 0
-0.07875712 -0.01574165 0.17003627 0 0 0 0
-0.05922610 -0.01610617 0.26356509 0 0 0 0
-0.06382203 -0.00570115 0.25943926 0 0 0 0
-0.06345004 0.00000302 0.25856000 0 0 0 0
0.07013902 -0.03388458 0.24652341 0 0 0 0
-0.05424919 -0.00022157 0.26808730 0 0 0 0
-0.02568394 -0.02616663 0.00004154 0 0 0 0
0.00422894 -0.08362076 0.25808084 0 0 0 0
0.06940928 -0.05100421 0.00215841 0 0 0 0
0.00399775 -0.10929316 0.13017555 0 0 0 0
-0.05710927 -0.00578360 0.13839053 0 0 0 0
-0.06086914 -0.04228365 0.25541106 0 0 0 0
0.04453786 0.06411301 0.00007099 0 0 0 0
-0.05419003 -0.01575974 0.26829207 0 0 0 0
-0.07551185 0.00026426 0.19024195 0 0 0 0
-0.05857588 -0.07801222 0.10967646 0 0 0 0
0.04507332 -0.09774207 0.13987404 0 0 0 0
0.03496445 0.07543948 0.00122974 0 0 0 0
0.06652232 -0.07623514 0.17002836 0 0 0 0
0.05450482 -0.07626244 0.07994827 0 0 0 0
-0.08441612 -0.00594076 0.19009626 0 0 0 0
-0.02568215 0.00025576 0.13969846 0 0 0 0
0.04399128 0.07265168 0.00201442 0 0 0 0
0.06628489 -0.03567636 0.13007386 0 0 0 0
0.06460921 0.05393011 0.00157888 0 0 0 0
-0.06036362 -0.08056957 0.13754842 0 0 0 0
-0.07530764 0.02416866 0.02996650 0 0 0 0
0.04758768 -0.09931748 0.16983002 0 0 0 0
0.07971104 -0.03192573 0.00260441 0 0 0 0
0.02288662 0.05043115 0.05588783 0 0 0 0
-0.02561987 0.04395659 0.05961718 0 0 0 0
-0.02574924 -0.00620687 0.00004143 0 0 0 0
0.07533307 -0.03604025 0.00131446 0 0 0 0
-0.05121255 -0.00038031 0.13460495 0 0 0 0
0.07228097 -0.04528599 0.00213646 0 0 0 0
-0.01594712 -0.10985715 0.13948423 0 0 0 0
-0.03774377 0.05728988 0.04323528 0 0 0 0
0.06419148 -0.05558303 0.00194870 0 0 0 0
-0.03577577 0.07650968 0.01009098 0 0 0 0
-0.08145051 -0.02553475 0.18148267 0 0 0 0
0.06011606 -0.06170271 0.00291978 0 0 0 0
0.05116364 -0.09262171 0.14055979 0 0 0 0
-0.02567415 0.07403444 0.00004110 0 0 0 0
-0.03577384 -0.08516065 0.06005219 0 0 0 0
0.04983364 -0.07098252 0.00338741 0 0 0 0
0.06799673 -0.03562237 0.10020762 0 0 0 0
0.04394323 -0.07354484 0.00232535 0 0 0 0
-0.06589370 0.00026621 0.20015159 0 0 0 0
-0.07122997 -0.06196830 0.21703604 0 0 0 0
-0.03494849 0.04251349 0.05781065 0 0 0 0
-0.06210511 -0.05366969 0.24776700 0 0 0 0
-0.06634346 -0.03571957 0.13006681 0 0 0 0
0.03500357 0.07696542 0.01037683 0 0 0 0
0.05520238 -0.00544774 0.09042943 0 0 0 0
0.06317116 -0.00628111 0.07951200 0 0 0 0
0.06891955 -0.03361782 0.09335697 0 0 0 0
0.04438760 -0.07393245 0.00996554 0 0 0 0
0.01442689 0.08186451 0.02012680 0 0 0 0
0.02445016 -0.10569116 0.12996106 0 0 0 0
-0.04750888 -0.01601131 0.27332270 0 0 0 0
0.04403086 0.07210074 0.00987186 0 0 0 0
-0.05230939 -0.09267052 0.20950225 0 0 0 0
-0.06360948 -0.04511245 0.25031462 0 0 0 0
0.01424432 0.02283226 0.07792629 0 0 0 0
0.06143158 -0.08331441 0.16022588 0 0 0 0
-0.08354948 0.00012804 0.20021689 0 0 0 0
0.04837879 0.06839506 0.01227272 0 0 0 0
-0.00584892 -0.09485228 0.07006075 0 0 0 0
0.01447240 0.00026624 0.20011099 0 0 0 0
0.08161038 0.01411128 0.02001034 0 0 0 0
0.05891598 0.05881549 0.01301838 0 0 0 0
0.06733469 -0.02519607 0.09044642 0 0 0 0
-0.04862850 -0.00245551 0.09349042 0 0 0 0
0.05016619 -0.09192051 0.13142650 0 0 0 0
0.07452544 0.00026785 0.21002178 0 0 0 0
0.02473022 -0.08912471 0.05981213 0 0 0 0
-0.05573770 0.03398111 0.00004126 0 0 0 0
0.07735544 -0.03652229 0.00992696 0 0 0 0
0.01410097 -0.00155648 0.10421517 0 0 0 0
0.06488662 -0.05600722 0.00993988 0 0 0 0
0.07898904 0.02797511 0.01340560 0 0 0 0
0.04342512 -0.09358043 0.22906679 0 0 0 0
0.07171485 0.02335287 0.03918778 0 0 0 0
-0.04663775 -0.05698617 0.26300022 0 0 0 0
0.08123458 -0.02604131 0.18001179 0 0 0 0
-0.05144271 -0.08237453 0.23675925 0 0 0 0
0.02652797 0.07793316 0.02148385 0 0 0 0
-0.07015201 0.00789097 0.05429187 0 0 0 0
-0.07974759 -0.01652135 0.23189634 0 0 0 0
-0.07404727 0.00410686 0.04990835 0 0 0 0
-0.06008760 -0.07980476 0.12928548 0 0 0 0
0.04726402 -0.09895254 0.20027734 0 0 0 0
-0.07026678 -0.05995838 0.22400251 0 0 0 0
-0.02523277 -0.04614224 0.00004160 0 0 0 0
-0.05453398 -0.00585067 0.26862708 0 0 0 0
0.00451857 0.06777057 0.04369314 0 0 0 0
0.03437027 0.07488636 0.02008115 0 0 0 0
0.02441508 -0.10763063 0.13995269 0 0 0 0
-0.01663538 -0.00144224 0.10384400 0 0 0 0
-0.04689797 -0.09765021 0.21017748 0 0 0 0
-0.04261295 -0.01555221 0.27620944 0 0 0 0
0.04202378 0.07092143 0.01902565 0 0 0 0
-0.08198509 0.02361224 0.00257841 0 0 0 0
0.05222968 -0.00846214 0.09870341 0 0 0 0
0.06066322 -0.00878120 0.08719108 0 0 0 0
0.04408117 -0.07462032 0.02001322 0 0 0 0
-0.03694186 -0.08902263 0.07947150 0 0 0 0
0.06123091 -0.07422089 0.22874044 0 0 0 0
0.04207862 -0.08252387 0.24702269 0 0 0 0
0.04978836 -0.07143394 0.02028950 0 0 0 0
0.05738832 0.05728998 0.02137726 0 0 0 0
-0.00564884 0.00025579 0.13969976 0 0 0 0
0.07986052 0.03040950 0.00247956 0 0 0 0
0.05245349 -0.09403447 0.19986184 0 0 0 0
-0.04607594 -0.04620628 0.00004165 0 0 0 0
0.06030066 -0.06146508 0.02000811 0 0 0 0
-0.08351555 -0.01559961 0.00232359 0 0 0 0
0.07081025 0.04153663 0.01878256 0 0 0 0
-0.05600618 -0.03623603 0.00004162 0 0 0 0
0.07226911 -0.04570361 0.01997934 0 0 0 0
0.07792490 0.02532277 0.02092162 0 0 0 0
0.05190221 -0.00731477 0.13258053 0 0 0 0
0.07924281 0.01853402 0.02453435 0 0 0 0
-0.05157955 -0.09160879 0.21709611 0 0 0 0
0.08301621 -0.01610084 0.02001062 0 0 0 0
-0.06572884 0.00026278 0.18021367 0 0 0 0
0.01424578 -0.08656952 0.02992276 0 0 0 0
0.05529783 -0.06696181 0.02984116 0 0 0 0
-0.05619860 0.03456698 0.05061521 0 0 0 0
0.05085465 0.06049486 0.02726353 0 0 0 0
-0.06560803 0.03395079 0.00004124 0 0 0 0
0.03529214 -0.00251224 0.10238066 0 0 0 0
-0.07243216 -0.06458665 0.19978255 0 0 0 0
-0.06901462 -0.05745700 0.23094542 0 0 0 0
-0.07676252 -0.00606516 0.04983988 0 0 0 0
-0.05963853 -0.00625299 0.26394552 0 0 0 0
0.03347446 0.07149974 0.02894558 0 0 0 0
0.02443439 0.07464484 0.03012728 0 0 0 0
0.03650300 -0.07969041 0.02955171 0 0 0 0
0.04597860 -0.08839720 0.09958721 0 0 0 0
0.05970649 -0.07172912 0.08277281 0 0 0 0
-0.07893842 -0.02596303 0.23012012 0 0 0 0
0.01438484 0.00025578 0.13970108 0 0 0 0
-0.07145303 -0.02692538 0.07826322 0 0 0 0
-0.05348606 -0.02552763 0.26761314 0 0 0 0
-0.06808073 0.00499802 0.06115490 0 0 0 0
-0.03572398 -0.10729708 0.18993905 0 0 0 0
-0.06593525 -0.02574616 0.14005095 0 0 0 0
0.05381684 -0.06569143 0.25106856 0 0 0 0
-0.01548659 -0.08650901 0.02996319 0 0 0 0
0.05597509 -0.08706142 0.13970467 0 0 0 0
0.03623931 0.06754275 0.03255380 0 0 0 0
-0.03254068 -0.08174460 0.03073313 0 0 0 0
0.06313676 -0.07567479 0.21978498 0 0 0 0
0.04966253 -0.07130464 0.01000671 0 0 0 0
-0.08172606 0.02247546 0.00958205 0 0 0 0
0.04437574 -0.07546152 0.03003308 0 0 0 0
-0.03550499 -0.08339189 0.05011081 0 0 0 0
0.05062600 -0.07171790 0.03106222 0 0 0 0
-0.05604441 -0.04623691 0.00004162 0 0 0 0
0.04834019 0.05795291 0.03403849 0 0 0 0
-0.00568814 0.00025759 0.14986326 0 0 0 0
0.07958759 0.02980411 0.00706057 0 0 0 0
0.05283867 -0.09454184 0.18995492 0 0 0 0
0.08478077 0.00411177 0.01019551 0 0 0 0
-0.00519240 -0.09131857 0.05286523 0 0 0 0
0.01428580 0.00026288 0.18014444 0 0 0 0
0.08344197 0.01390934 0.00187355 0 0 0 0
0.05485686 0.05462490 0.03044958 0 0 0 0
0.02043356 -0.11118443 0.15336075 0 0 0 0
0.07458310 0.00017510 0.17015551 0 0 0 0
0.01416639 0.07185315 0.03837072 0 0 0 0
0.00436839 -0.04577507 0.28067985 0 0 0 0
0.08431105 0.00393704 0.00174972 0 0 0 0
-0.03589734 0.01458869 0.08056618 0 0 0 0
-0.00193486 -0.03141049 0.28512263 0 0 0 0
0.07148515 -0.04600504 0.08003759 0 0 0 0
-0.08281460 -0.01610305 0.01998666 0 0 0 0
0.07263067 0.04380884 0.00183976 0 0 0 0
0.06001477 -0.06171858 0.00977147 0 0 0 0
-0.03596947 0.05407175 0.00004118 0 0 0 0
-0.07070982 0.02955265 0.03573988 0 0 0 0
0.07216361 0.04356905 0.00962534 0 0 0 0
0.07220124 -0.04579563 0.03002756 0 0 0 0
-0.07677968 -0.04575070 0.21982351 0 0 0 0
0.07499382 -0.02576801 0.24037069 0 0 0 0
-0.05666904 -0.08634291 0.13993758 0 0 0 0
-0.04193014 0.02970345 0.06590535 0 0 0 0
0.08042303 -0.02547473 0.02966028 0 0 0 0
0.02460416 -0.10931742 0.14959802 0 0 0 0
-0.04588527 -0.09579500 0.21977420 0 0 0 0
0.08103575 0.00019102 0.22837880 0 0 0 0
0.03344263 -0.10251617 0.13041851 0 0 0 0
0.07906685 -0.03006399 0.03070028 0 0 0 0
0.05973759 -0.08147059 0.13112095 0 0 0 0
0.07693783 -0.03609434 0.03015454 0 0 0 0
-0.07062637 -0.05030987 0.23445176 0 0 0 0
0.08383649 -0.01582473 0.01021314 0 0 0 0
0.04427065 0.06393938 0.03007813 0 0 0 0
0.05463055 0.03432018 0.00004125 0 0 0 0
-0.00550762 0.01687588 0.08281904 0 0 0 0
-0.06240661 -0.08334228 0.18976405 0 0 0 0
0.02549606 -0.09968977 0.23263831 0 0 0 0
0.07908314 0.00788374 0.03410612 0 0 0 0
-0.05311396 -0.09349876 0.19988802 0 0 0 0
0.08323991 -0.01570687 0.00188504 0 0 0 0
0.02484842 0.06572551 0.04145293 0 0 0 0
0.07558215 0.03455263 0.00126017 0 0 0 0
0.01464906 0.00027149 0.23012199 0 0 0 0
0.08344553 0.01415375 0.01015800 0 0 0 0
-0.02567998 0.01439184 0.00004136 0 0 0 0
0.07974998 0.00093131 0.03656169 0 0 0 0
-0.06850902 -0.04682108 0.24155271 0 0 0 0
0.04637086 0.06701370 0.02115917 0 0 0 0
-0.03586569 -0.10619367 0.20015953 0 0 0 0
-0.06938781 -0.02547721 0.14791210 0 0 0 0
0.05783874 -0.06869320 0.24279915 0 0 0 0
0.05207381 0.05178522 0.03796673 0 0 0 0
0.04456983 -0.08704285 0.09003166 0 0 0 0
-0.07476325 -0.02571058 0.24028322 0 0 0 0
0.01443849 0.00025750 0.14982237 0 0 0 0
-0.07765553 -0.02569534 0.05007683 0 0 0 0
-0.05841250 -0.02618915 0.26286492 0 0 0 0
-0.06389510 0.00350518 0.06915154 0 0 0 0
0.06412000 0.00026623 0.20011565 0 0 0 0
0.03309469 -0.08250320 0.04041215 0 0 0 0
0.05732041 -0.08852833 0.20026876 0 0 0 0
0.03062477 0.05951603 0.04574175 0 0 0 0
-0.03430068 -0.10254131 0.21911724 0 0 0 0
-0.00558484 0.07409617 0.00004109 0 0 0 0
0.02346991 0.06109809 0.04678826 0 0 0 0
-0.03573124 -0.07865147 0.01006072 0 0 0 0
-0.08101085 0.02043563 0.01646267 0 0 0 0
-0.07503608 0.01405154 0.04010433 0 0 0 0
0.05805403 -0.00265446 0.08315874 0 0 0 0
0.06728178 -0.00502160 0.07128215 0 0 0 0
0.06802186 -0.03517127 0.13922355 0 0 0 0
0.04428670 -0.07683089 0.04004784 0 0 0 0
0.05102713 -0.07244344 0.04054931 0 0 0 0
0.05293035 -0.09468886 0.18000202 0 0 0 0
0.05603155 -0.06742278 0.03986653 0 0 0 0
0.05555872 0.04537242 0.04108595 0 0 0 0
-0.03583963 0.00027305 0.23980595 0 0 0 0
0.00420906 -0.09490111 0.07006949 0 0 0 0
-0.06977928 -0.04934631 0.03007093 0 0 0 0
0.05875358 0.03822267 0.04449167 0 0 0 0
-0.06287734 -0.02553474 0.25813749 0 0 0 0
0.08337200 0.00402338 0.01997795 0 0 0 0
-0.04718726 -0.07857544 0.05954773 0 0 0 0
0.08018901 0.01224759 0.02737728 0 0 0 0
-0.00570353 -0.03591983 0.28363684 0 0 0 0
0.07243714 -0.04565692 0.01001650 0 0 0 0
0.06028406 -0.06197786 0.03030824 0 0 0 0
0.06193065 -0.06403305 0.06027231 0 0 0 0
0.08259179 0.00024814 0.20025671 0 0 0 0
0.03114958 -0.10158418 0.12213444 0 0 0 0
0.06802823 0.02667929 0.04278764 0 0 0 0
0.04853759 -0.09040355 0.11808953 0 0 0 0
0.06107909 -0.07290550 0.10022716 0 0 0 0
-0.06858169 -0.01605627 0.25246513 0 0 0 0
-0.05596359 -0.06633532 0.02997916 0 0 0 0
0.08402278 -0.00588631 0.00165711 0 0 0 0
-0.03590882 -0.00629203 0.11023881 0 0 0 0
0.04637152 0.01732604 0.07332987 0 0 0 0
-0.01532362 0.00409707 0.00004140 0 0 0 0
0.03448407 -0.08554678 0.06005529 0 0 0 0
0.05030709 -0.00033984 0.13412191 0 0 0 0
-0.01531139 -0.00625549 0.00004145 0 0 0 0
0.01381572 -0.08309392 0.25753751 0 0 0 0
0.05005716 -0.01032595 0.10583574 0 0 0 0
-0.07238358 -0.00579001 0.24812923 0 0 0 0
0.00491865 0.02786405 0.07404874 0 0 0 0
0.08089043 -0.02611465 0.01993076 0 0 0 0
-0.06294274 -0.02642779 0.13050155 0 0 0 0
-0.03572469 -0.10760254 0.18003164 0 0 0 0
0.07877682 -0.00495445 0.04296941 0 0 0 0
0.01747239 -0.09047554 0.05749635 0 0 0 0
-0.04844321 -0.09893209 0.18997043 0 0 0 0
-0.01588520 -0.00300469 0.11760628 0 0 0 0
0.08022992 -0.01616291 0.03974259 0 0 0 0
0.01424159 -0.00367977 0.11021245 0 0 0 0
0.06492049 -0.05598445 0.01995454 0 0 0 0
0.02425461 0.00025930 0.16016959 0 0 0 0
0.07666714 -0.03583222 0.03997163 0 0 0 0
0.05975486 -0.00159844 0.26545328 0 0 0 0
0.04612454 -0.05743481 0.26346064 0 0 0 0
0.05974036 -0.02001126 0.10707061 0 0 0 0
0.05627793 -0.01392293 0.10106941 0 0 0 0
0.08144673 -0.03586660 0.19005696 0 0 0 0
-0.07886587 -0.04602713 0.18988945 0 0 0 0
0.03472460 -0.06603351 0.00004187 0 0 0 0
0.00463046 0.00027138 0.23021150 0 0 0 0
0.02477544 0.05482199 0.05146300 0 0 0 0
0.04760600 -0.08944856 0.10906111 0 0 0 0
0.06015788 -0.07225856 0.09036369 0 0 0 0
-0.06349659 -0.01566784 0.25903448 0 0 0 0
-0.05824539 -0.06817483 0.05982276 0 0 0 0
0.08490091 -0.00584908 0.01026769 0 0 0 0
0.03454366 -0.08768466 0.07004752 0 0 0 0
0.05437700 0.00025933 0.16027357 0 0 0 0
-0.03628757 -0.00281377 0.10225709 0 0 0 0
0.06980243 0.02024166 0.04598889 0 0 0 0
0.04591077 -0.09819043 0.21035844 0 0 0 0
-0.06197214 -0.07292873 0.22818093 0 0 0 0
0.03400260 0.05366041 0.04920908 0 0 0 0
-0.06502260 0.05387027 0.00182377 0 0 0 0
0.08190534 -0.03595910 0.20003660 0 0 0 0
0.03458949 0.01473814 0.08095404 0 0 0 0
-0.07790568 -0.04589649 0.18014382 0 0 0 0
-0.06618457 -0.03584727 0.25072137 0 0 0 0
0.00465865 0.00027313 0.23993160 0 0 0 0
0.03452789 -0.07888225 0.00991011 0 0 0 0
0.01366398 -0.07238583 0.26616570 0 0 0 0
0.05377463 0.00013262 0.14024502 0 0 0 0
0.03426314 -0.08372869 0.05012964 0 0 0 0
0.03559731 -0.08908174 0.24326681 0 0 0 0
0.06439394 0.00025933 0.16017260 0 0 0 0
0.07992904 -0.04326748 0.19044895 0 0 0 0
-0.08034266 -0.03943552 0.18879065 0 0 0 0
-0.05577529 0.02415218 0.00004133 0 0 0 0
0.06055363 0.05071806 0.02730609 0 0 0 0
-0.01555892 0.00025415 0.12967330 0 0 0 0
0.01427090 -0.11394066 0.19002573 0 0 0 0
0.04479929 -0.07813885 0.04973165 0 0 0 0
-0.04999173 -0.09042773 0.22344552 0 0 0 0
0.01365640 -0.09190743 0.06072924 0 0 0 0
0.06427003 0.00026283 0.18014871 0 0 0 0
-0.06087782 0.05940321 0.00731776 0 0 0 0
-0.07108139 -0.03150784 0.24555302 0 0 0 0
0.01438979 0.00651773 0.09239427 0 0 0 0
0.04818255 0.03820317 0.05427461 0 0 0 0
-0.03539952 0.00026787 0.21001093 0 0 0 0
0.00825069 -0.10071285 0.09558732 0 0 0 0
-0.06967844 -0.04939425 0.02019650 0 0 0 0
0.05550446 0.03510362 0.05114134 0 0 0 0
-0.06775048 -0.02604720 0.25163442 0 0 0 0
0.06991041 -0.05281602 0.07985537 0 0 0 0
0.01439970 0.00373901 0.00004143 0 0 0 0
-0.04577864 -0.07476413 0.03010933 0 0 0 0
0.06970404 -0.05180147 0.05083221 0 0 0 0
0.05403008 0.00386076 0.00004141 0 0 0 0
-0.07657397 -0.02665646 0.00061968 0 0 0 0
0.06427985 0.00026103 0.17006044 0 0 0 0
0.07954269 -0.04195312 0.18339680 0 0 0 0
-0.07306229 -0.03555885 0.23952834 0 0 0 0
0.06239059 0.05276667 0.01958836 0 0 0 0
0.02422872 0.04397702 0.05998924 0 0 0 0
0.04430559 0.00025736 0.14990903 0 0 0 0
0.03379999 0.04305693 0.05810541 0 0 0 0
-0.07671720 -0.00610137 0.24058732 0 0 0 0
0.07665704 -0.00602628 0.04977017 0 0 0 0
0.00347459 -0.09134351 0.05271780 0 0 0 0
-0.07020427 -0.04662854 0.09122305 0 0 0 0
0.05206745 0.03188421 0.05723293 0 0 0 0
-0.00584915 0.06771503 0.04355412 0 0 0 0
-0.05164200 -0.07201342 0.04045883 0 0 0 0
0.07237688 0.00018035 0.16129965 0 0 0 0
0.02724192 -0.09007751 0.06806567 0 0 0 0
0.05363139 -0.01577936 0.26909223 0 0 0 0
-0.04862587 -0.08864145 0.23102038 0 0 0 0
0.01460117 -0.09371699 0.06999007 0 0 0 0
-0.05969319 -0.07002227 0.07898123 0 0 0 0
0.08210539 -0.00599795 0.03012338 0 0 0 0
-0.07438435 0.03419264 0.02000729 0 0 0 0
0.02412824 0.03327749 0.06828588 0 0 0 0
-0.05731254 -0.06750108 0.04978529 0 0 0 0
0.08380824 -0.00591248 0.02012857 0 0 0 0
0.04099858 0.03027166 0.06578248 0 0 0 0
-0.05913717 -0.00292124 0.08269134 0 0 0 0
-0.05097539 -0.07097523 0.02262096 0 0 0 0
-0.06972484 -0.03525361 0.09117344 0 0 0 0
0.05500107 0.02467765 0.06067254 0 0 0 0
0.05818988 0.01759358 0.06380706 0 0 0 0
-0.08106714 0.01074778 0.02617046 0 0 0 0
0.01437317 -0.10334694 0.11000651 0 0 0 0
0.05139829 0.00069303 0.08690681 0 0 0 0
0.06746633 0.00556362 0.06202028 0 0 0 0
-0.01548395 0.08305176 0.00170708 0 0 0 0
-0.04884272 -0.07940063 0.06915913 0 0 0 0
-0.03996784 0.01844952 0.07500990 0 0 0 0
0.08109093 0.00413239 0.02989366 0 0 0 0
0.08124363 -0.00600318 0.22986816 0 0 0 0
0.06779147 0.01616934 0.05263087 0 0 0 0
0.02446484 0.00027817 0.26983505 0 0 0 0
0.06992124 -0.05196310 0.06071696 0 0 0 0
-0.08003105 -0.00597533 0.23319641 0 0 0 0
0.07980335 -0.02387690 0.03826602 0 0 0 0
0.07282331 -0.00609552 0.05994667 0 0 0 0
-0.06569821 -0.07606091 0.16006835 0 0 0 0
-0.05932971 0.04763571 0.03283265 0 0 0 0
-0.06645751 -0.07592252 0.19995268 0 0 0 0
0.04503968 0.05509773 0.04087402 0 0 0 0
0.08010694 -0.00031916 0.17308505 0 0 0 0
0.06468867 0.02424546 0.05016937 0 0 0 0
0.07233883 -0.04599228 0.05997308 0 0 0 0
0.03016791 -0.09104131 0.07444717 0 0 0 0
-0.05304088 -0.09348936 0.16025008 0 0 0 0
0.01449716 -0.09612390 0.08001065 0 0 0 0
0.03352105 0.00085700 0.09705590 0 0 0 0
0.06636351 -0.05637902 0.04983377 0 0 0 0
0.02416104 0.00027486 0.24977747 0 0 0 0
0.04591501 0.00705421 0.08328633 0 0 0 0
-0.05950414 0.03765785 0.04356496 0 0 0 0
0.07606190 -0.03591874 0.04999003 0 0 0 0
-0.04316685 -0.00573614 0.27648631 0 0 0 0
0.04402654 0.02371330 0.06933084 0 0 0 0
-0.06542255 -0.06622750 0.11005396 0 0 0 0
0.02265817 -0.11204600 0.18962938 0 0 0 0
-0.04533260 -0.08555972 0.24056938 0 0 0 0
0.01714827 0.03865942 0.06482399 0 0 0 0
0.02471657 0.00026959 0.22004993 0 0 0 0
0.07722522 -0.03610774 0.02011040 0 0 0 0
0.06561724 -0.05636789 0.03996763 0 0 0 0
-0.03596699 0.02486174 0.07157090 0 0 0 0
0.03413358 -0.10573551 0.15003739 0 0 0 0
0.08309366 0.00010892 0.20985869 0 0 0 0
-0.03551479 -0.00584545 0.28033996 0 0 0 0
0.02418256 0.02195758 0.07741068 0 0 0 0
0.04876530 -0.01126730 0.12619308 0 0 0 0
0.03310942 0.02061817 0.07643048 0 0 0 0
-0.03572712 -0.10730869 0.16984527 0 0 0 0
0.05835297 -0.06973924 0.06887873 0 0 0 0
-0.08279644 -0.02590866 0.18995725 0 0 0 0
0.04989738 0.06962128 0.00247485 0 0 0 0
-0.04555115 -0.06636898 0.00030825 0 0 0 0
0.06049350 0.00096520 0.07671437 0 0 0 0
0.05771390 0.00748359 0.07334281 0 0 0 0
-0.08214125 -0.00002787 0.18053125 0 0 0 0
0.06014512 -0.08223467 0.14110297 0 0 0 0
0.05277817 -0.08473961 0.11034326 0 0 0 0
0.00454058 0.01435443 0.00004132 0 0 0 0
-0.06151490 -0.08196662 0.20863408 0 0 0 0
-0.05574352 0.00026958 0.22004163 0 0 0 0
0.03493934 0.02512509 0.07186043 0 0 0 0
0.06744998 -0.05723998 0.06995562 0 0 0 0
-0.02118412 -0.00502291 0.28516540 0 0 0 0
0.07796590 -0.04642709 0.17986026 0 0 0 0
0.02439405 -0.09380584 0.08000644 0 0 0 0
0.06528107 -0.05593496 0.02995295 0 0 0 0
0.02424731 0.00026463 0.19033274 0 0 0 0
0.07389435 -0.03575505 0.06997133 0 0 0 0
0.00448525 0.00026277 0.18014367 0 0 0 0
-0.06699006 -0.07607084 0.19004124 0 0 0 0
0.02310698 0.07064122 0.03688761 0 0 0 0
-0.05532254 -0.08599335 0.21981649 0 0 0 0
0.04233867 0.05117513 0.04704626 0 0 0 0
0.06136215 -0.06324939 0.05041020 0 0 0 0
0.08214833 0.00012138 0.21982969 0 0 0 0
0.06121017 0.02162890 0.05718582 0 0 0 0
0.07216168 -0.04599340 0.06995228 0 0 0 0
-0.05234049 -0.03502605 0.26659650 0 0 0 0
-0.08355509 0.01415959 0.01011071 0 0 0 0
0.07527246 0.02419032 0.03003400 0 0 0 0
0.04390694 0.01305111 0.07889880 0 0 0 0
0.07004145 -0.01891258 0.07671735 0 0 0 0
0.07631524 -0.04604928 0.16999353 0 0 0 0
0.02448241 -0.09616421 0.09001672 0 0 0 0
-0.04889275 0.03765285 0.05362516 0 0 0 0
-0.05449694 -0.08513757 0.12021426 0 0 0 0
0.06245138 -0.02616466 0.10990222 0 0 0 0
0.06011031 0.05980782 0.00777619 0 0 0 0
0.07075606 -0.02513835 0.24823187 0 0 0 0
-0.05752462 -0.08689420 0.14990154 0 0 0 0
0.06888318 -0.02275429 0.08331245 0 0 0 0
0.07085134 -0.02645546 0.07985103 0 0 0 0
-0.00555674 0.01207402 0.08733682 0 0 0 0
-0.06214748 -0.08280633 0.19937089 0 0 0 0
0.07456689 0.00026457 0.19033726 0 0 0 0
0.04725729 0.02760026 0.06391984 0 0 0 0
0.06684890 -0.05683618 0.05977368 0 0 0 0
0.02440173 0.00026632 0.20011187 0 0 0 0
0.07199750 -0.03587829 0.08015419 0 0 0 0
0.05729654 -0.05690023 0.25269055 0 0 0 0
0.02816674 0.07896302 0.01346250 0 0 0 0
0.08301394 -0.02589334 0.18995440 0 0 0 0
-0.05348518 -0.08412498 0.22917095 0 0 0 0
0.00474548 -0.06612560 0.00004180 0 0 0 0
0.07236826 -0.04597749 0.04994179 0 0 0 0
0.06964535 0.03954808 0.02539789 0 0 0 0
0.06075117 -0.06264880 0.04014481 0 0 0 0
0.01582675 -0.10015714 0.09792822 0 0 0 0
0.05422334 -0.01596933 0.00004152 0 0 0 0
0.06010555 -0.01929827 0.13296831 0 0 0 0
0.01419183 0.00026102 0.17008947 0 0 0 0
0.06902651 -0.04464295 0.10279707 0 0 0 0
0.06968069 -0.02932703 0.08697826 0 0 0 0
0.07107901 -0.04505191 0.23866192 0 0 0 0
0.02443379 -0.09859279 0.10004318 0 0 0 0
-0.06553275 0.00026429 0.19032487 0 0 0 0
0.08034349 -0.03482696 0.21898514 0 0 0 0
-0.07911595 -0.04588332 0.19987410 0 0 0 0
0.06105364 -0.01818925 0.09892622 0 0 0 0
0.05858877 -0.01155812 0.09352002 0 0 0 0
-0.08049455 -0.01866051 0.17528819 0 0 0 0
0.06814244 -0.05746955 0.08990701 0 0 0 0
0.02423705 0.00025392 0.12967579 0 0 0 0
0.07027841 -0.03670810 0.08917075 0 0 0 0
0.08318552 -0.01601623 0.21992752 0 0 0 0
-0.00605049 -0.05969109 0.27444041 0 0 0 0
0.01446394 -0.11281142 0.19998235 0 0 0 0
0.04649921 -0.07894495 0.05956495 0 0 0 0
-0.01545717 0.00014521 0.12139861 0 0 0 0
0.01802369 -0.11055980 0.14672647 0 0 0 0
0.06240209 -0.02555869 0.25909051 0 0 0 0
0.08188640 -0.02603069 0.21990423 0 0 0 0
0.04442821 -0.08481445 0.08010372 0 0 0 0
0.08488010 -0.01599246 0.19996576 0 0 0 0
-0.03473104 -0.09325833 0.23822144 0 0 0 0
-0.05375430 0.06176997 0.01940882 0 0 0 0
0.04102558 -0.09191528 0.10106222 0 0 0 0
0.02440182 0.00025575 0.13970174 0 0 0 0
0.06943170 -0.04001401 0.09591536 0 0 0 0
0.01465873 0.00026964 0.22004887 0 0 0 0
0.03439362 -0.10767282 0.16995563 0 0 0 0
-0.00566353 0.00018979 0.12092835 0 0 0 0
0.07429911 -0.04587009 0.22997075 0 0 0 0
0.07350495 -0.05584728 0.21994196 0 0 0 0
-0.02589847 0.00027314 0.23992816 0 0 0 0
0.06869050 -0.06960394 0.21104832 0 0 0 0
0.02664302 -0.09997324 0.10866868 0 0 0 0
0.07905561 -0.01719365 0.23407693 0 0 0 0
0.02242598 -0.10184456 0.11108141 0 0 0 0
0.07053661 -0.04587949 0.09016165 0 0 0 0
0.00436529 -0.09309249 0.24815415 0 0 0 0
0.02427958 -0.00426376 0.11022338 0 0 0 0
-0.05545093 -0.08598201 0.12998115 0 0 0 0
0.06467817 -0.02570032 0.10005640 0 0 0 0
0.01468912 -0.00303902 0.11745456 0 0 0 0
-0.00559783 -0.00260769 0.11674748 0 0 0 0
-0.05846119 -0.08850370 0.17996536 0 0 0 0
0.03456093 -0.00589010 0.11028128 0 0 0 0
0.03398817 0.00027122 0.23021476 0 0 0 0
0.06850116 -0.05654977 0.10019043 0 0 0 0
0.06673178 -0.07666390 0.19008207 0 0 0 0
0.05276871 -0.07403119 0.06023950 0 0 0 0
0.04279192 -0.09312343 0.11046733 0 0 0 0
0.04792885 -0.01188825 0.11209931 0 0 0 0
0.07937343 -0.03143257 0.17447452 0 0 0 0
0.02426373 -0.10342333 0.12004736 0 0 0 0
-0.06563868 0.00026105 0.17008308 0 0 0 0
0.01434897 -0.08790138 0.03999690 0 0 0 0
0.05393372 -0.00584210 0.26945916 0 0 0 0
-0.04444249 -0.09341733 0.22908607 0 0 0 0
0.04748676 -0.00212976 0.09359258 0 0 0 0
0.01826889 -0.10069941 0.23420264 0 0 0 0
0.05454456 -0.01611266 0.11007446 0 0 0 0
0.05884060 -0.02165819 0.11278103 0 0 0 0
-0.00598206 -0.09720349 0.07994046 0 0 0 0
0.01456496 0.00026788 0.21001586 0 0 0 0
0.04020038 -0.08147093 0.05226793 0 0 0 0
0.06151107 -0.07412476 0.11031301 0 0 0 0
-0.04510852 0.00268058 0.08892348 0 0 0 0
0.02162347 -0.11149439 0.16051796 0 0 0 0
-0.06480178 -0.06600538 0.09988180 0 0 0 0
0.06656633 -0.03593667 0.11011809 0 0 0 0
-0.06834586 -0.05604211 0.10010654 0 0 0 0
0.06848924 -0.04598443 0.10995844 0 0 0 0
-0.01561576 0.00027153 0.23020923 0 0 0 0
0.01439235 -0.11399384 0.17003211 0 0 0 0
0.04793306 -0.08010995 0.06895479 0 0 0 0
-0.06871921 0.02575845 0.04196080 0 0 0 0
-0.03229051 -0.09164495 0.08167807 0 0 0 0
0.04411472 -0.09450604 0.12026870 0 0 0 0
0.04734753 -0.01201440 0.11960644 0 0 0 0
-0.03607997 -0.02619858 0.00004155 0 0 0 0
-0.07165509 -0.04412766 0.23717573 0 0 0 0
0.08021326 -0.03527420 0.18070921 0 0 0 0
-0.04453296 -0.07348003 0.00254456 0 0 0 0
0.05455913 0.01423051 0.07018583 0 0 0 0
-0.05605555 0.00020116 0.25997567 0 0 0 0
0.03424249 -0.00587951 0.28103104 0 0 0 0
-0.06555349 0.00025930 0.16012871 0 0 0 0
-0.04872791 -0.09889837 0.18010159 0 0 0 0
0.01463068 -0.08956147 0.04986934 0 0 0 0
-0.04185259 -0.09145405 0.23595534 0 0 0 0
0.04485817 -0.00491426 0.10029924 0 0 0 0
0.05365616 -0.01670290 0.12030684 0 0 0 0
0.05850672 -0.02204118 0.12014365 0 0 0 0
0.05754795 -0.06891801 0.05970029 0 0 0 0
0.05266875 -0.09451795 0.17017128 0 0 0 0
0.03778734 -0.00258377 0.12584943 0 0 0 0
0.04167769 -0.08217231 0.06078317 0 0 0 0
0.06189070 -0.07542113 0.12017490 0 0 0 0
-0.04202406 -0.00039688 0.09578735 0 0 0 0
0.06569473 -0.03571326 0.12008715 0 0 0 0
-0.03155149 0.07941959 0.00232118 0 0 0 0
0.07095725 -0.02628169 0.15096997 0 0 0 0
-0.06828126 -0.05600106 0.10997780 0 0 0 0
-0.07833187 -0.02594093 0.16994388 0 0 0 0
0.06803879 -0.04571053 0.11994024 0 0 0 0
-0.01588610 -0.09365351 0.07002911 0 0 0 0
0.03935156 -0.10103910 0.13469836 0 0 0 0
0.07411940 -0.04610916 0.16011491 0 0 0 0
-0.02578630 0.00027479 0.24963461 0 0 0 0
0.06634606 -0.06604034 0.12002251 0 0 0 0
-0.01528790 -0.02613469 0.00004149 0 0 0 0
0.05888037 -0.02168398 0.12706196 0 0 0 0
-0.02540681 0.00026787 0.21001191 0 0 0 0
0.06978046 -0.05230387 0.09000875 0 0 0 0
-0.07588030 0.00026628 0.20010246 0 0 0 0
-0.05762277 -0.07706472 0.09965896 0 0 0 0
0.04459364 -0.09618900 0.13003033 0 0 0 0
0.03441057 0.00027480 0.24977872 0 0 0 0
0.06598680 -0.05613729 0.24028149 0 0 0 0
0.04449745 0.00027462 0.24965937 0 0 0 0
0.07873156 -0.03833533 0.22246070 0 0 0 0
-0.08172546 -0.01604945 0.02993598 0 0 0 0
0.03446902 -0.10383704 0.14013065 0 0 0 0
0.05667906 -0.06820207 0.04964537 0 0 0 0
-0.07032697 -0.05762799 0.14767180 0 0 0 0
0.06802040 -0.04745567 0.24280629 0 0 0 0
0.04332792 -0.08329149 0.07042163 0 0 0 0
0.06274877 -0.07585272 0.13017941 0 0 0 0
-0.06308874 -0.07516327 0.13030663 0 0 0 0
0.06945694 0.04930631 0.00717170 0 0 0 0
-0.07509547 -0.01594131 0.06005177 0 0 0 0
0.06883815 -0.05591977 0.13011184 0 0 0 0
0.05046873 -0.04377632 0.26615915 0 0 0 0
0.06218379 -0.06528590 0.23888138 0 0 0 0
0.07469321 -0.03596473 0.15982388 0 0 0 0
-0.07239465 -0.01658444 0.06930877 0 0 0 0
0.06374785 -0.07592838 0.13992293 0 0 0 0
0.05562662 -0.07717930 0.08981937 0 0 0 0
0.04450764 -0.08596373 0.24080248 0 0 0 0
-0.08082794 -0.01439939 0.03624715 0 0 0 0
-0.07588986 -0.02598961 0.05991167 0 0 0 0
-0.08449323 0.00397937 0.00202310 0 0 0 0
0.06051717 0.06026328 0.00196646 0 0 0 0
-0.00534260 -0.11516603 0.16996723 0 0 0 0
-0.05056957 -0.01095297 0.10467743 0 0 0 0
-0.02523362 -0.06621771 0.00004181 0 0 0 0
0.03794917 -0.08023585 0.03863947 0 0 0 0
0.06945736 -0.06206838 0.14345001 0 0 0 0
-0.06332414 -0.01627889 0.14095643 0 0 0 0
0.08102525 0.02384445 0.01005360 0 0 0 0
0.06994217 -0.04670353 0.14116885 0 0 0 0
0.06794292 -0.06623088 0.13988216 0 0 0 0
-0.08370992 0.01404843 0.00219148 0 0 0 0
0.02886065 -0.08088029 0.00566635 0 0 0 0
-0.02710158 -0.10972819 0.20047565 0 0 0 0
0.01417092 -0.10578361 0.12007689 0 0 0 0
0.06338917 0.00394214 0.06960692 0 0 0 0
0.06966799 -0.03786543 0.14334418 0 0 0 0
0.01427663 0.08374233 0.01012879 0 0 0 0
0.05463880 -0.04606213 0.26119676 0 0 0 0
0.02638735 -0.11000793 0.15974599 0 0 0 0
0.01417169 0.08336255 0.00166127 0 0 0 0
0.02780942 -0.11035569 0.16929449 0 0 0 0
0.05387685 -0.08568691 0.12019347 0 0 0 0
0.06059582 -0.08299663 0.15021896 0 0 0 0
0.05180766 -0.03532091 0.26737428 0 0 0 0
0.06754760 -0.01537821 0.14783670 0 0 0 0
-0.00557309 -0.11406869 0.19978359 0 0 0 0
0.05419987 0.06431535 0.00150854 0 0 0 0
0.06397409 -0.06620157 0.09011164 0 0 0 0
0.08139067 -0.03601566 0.20988908 0 0 0 0
-0.07841357 -0.04591350 0.20992076 0 0 0 0
0.02427734 -0.10565027 0.21970652 0 0 0 0
-0.00566937 0.00028003 0.28004941 0 0 0 0
0.04230227 -0.10266785 0.16020976 0 0 0 0
-0.07689961 -0.03579497 0.22982581 0 0 0 0
-0.07257470 0.00000445 0.24748488 0 0 0 0
0.05682388 -0.07799574 0.09973029 0 0 0 0
0.06474464 -0.07611188 0.15008211 0 0 0 0
-0.06649247 -0.07606475 0.17004029 0 0 0 0
-0.05642695 0.04468222 0.04048931 0 0 0 0
0.00440716 0.00404273 0.00004140 0 0 0 0
-0.06509667 -0.07586241 0.20996152 0 0 0 0
0.06246783 -0.06510823 0.07021435 0 0 0 0
0.03949577 -0.09134432 0.09437536 0 0 0 0
-0.07459912 0.00022161 0.23940410 0 0 0 0
-0.01560561 0.00026273 0.18014199 0 0 0 0
0.05412660 -0.00604216 0.00004152 0 0 0 0
0.06650576 -0.00569991 0.14869371 0 0 0 0
0.05767759 -0.07916333 0.10952374 0 0 0 0
0.01442408 0.00027474 0.24977641 0 0 0 0
-0.06494690 -0.05588413 0.00990071 0 0 0 0
-0.08360779 -0.01585026 0.01017197 0 0 0 0
0.06886598 -0.05040462 0.02037228 0 0 0 0
-0.04547292 -0.03581708 0.27124098 0 0 0 0
0.06872872 -0.07057212 0.16928016 0 0 0 0
0.08010920 0.02144555 0.01804584 0 0 0 0
0.06698804 -0.06628063 0.12985350 0 0 0 0
0.07166408 -0.04587389 0.14992642 0 0 0 0
0.01469070 0.07668607 0.03134171 0 0 0 0
0.07410733 0.00026627 0.20006858 0 0 0 0
0.06776066 -0.05774819 0.07996071 0 0 0 0
0.08546197 -0.00583680 0.20001169 0 0 0 0
0.03470228 0.00543218 0.09055228 0 0 0 0
0.02431197 0.00027647 0.25974220 0 0 0 0
0.07517979 -0.03608206 0.05987719 0 0 0 0
0.04381441 0.00307348 0.08927222 0 0 0 0
0.08399972 -0.01607348 0.18994199 0 0 0 0
0.06713779 -0.01534063 0.08078790 0 0 0 0
0.05070159 -0.08241535 0.09080362 0 0 0 0
-0.03566410 -0.10453441 0.20996416 0 0 0 0
0.07031579 -0.00803753 0.06734388 0 0 0 0
-0.00553691 0.05416525 0.00004121 0 0 0 0
0.03497521 -0.07919113 0.01984586 0 0 0 0
0.05992750 -0.08149717 0.21752113 0 0 0 0
-0.03431918 0.02045286 0.07613537 0 0 0 0
0.07692610 0.03443357 0.01016920 0 0 0 0
0.07264231 -0.05613533 0.15992033 0 0 0 0
-0.05533253 0.06376121 0.00180245 0 0 0 0
-0.02570836 0.00027652 0.25973606 0 0 0 0
0.06568255 -0.06602020 0.10988145 0 0 0 0
0.05367260 -0.00014614 0.26878363 0 0 0 0
-0.01566554 0.00025582 0.13969909 0 0 0 0
0.07170048 -0.00581691 0.24963409 0 0 0 0
-0.06596243 -0.03626662 0.00004164 0 0 0 0
0.00412717 -0.11290553 0.15001257 0 0 0 0
-0.05155992 -0.07288636 0.24756506 0 0 0 0
-0.06409683 -0.06575422 0.08999474 0 0 0 0
0.06146422 -0.03518034 0.25763264 0 0 0 0
0.06706245 0.04598221 0.02083759 0 0 0 0
0.03444536 -0.10793610 0.18002185 0 0 0 0
-0.02972928 -0.09033739 0.07578423 0 0 0 0
-0.05538527 0.06346962 0.00974423 0 0 0 0
0.07687684 -0.00622186 0.24066511 0 0 0 0
-0.04065615 -0.10070148 0.21232958 0 0 0 0
-0.06345723 -0.06535125 0.08017930 0 0 0 0
0.01373488 -0.11201566 0.15038133 0 0 0 0
0.06621572 -0.03613489 0.25114235 0 0 0 0
0.01433525 0.00027306 0.23993273 0 0 0 0
0.06852891 0.04807145 0.01200170 0 0 0 0
0.03447436 -0.10752588 0.18991937 0 0 0 0
0.07617342 -0.05596970 0.19006869 0 0 0 0
0.06186938 -0.08429148 0.18008909 0 0 0 0
0.03443086 -0.10656261 0.20002137 0 0 0 0
0.06897862 -0.04392974 0.13718563 0 0 0 0
0.06151815 -0.08419535 0.17006706 0 0 0 0
-0.05127817 -0.04244672 0.26551166 0 0 0 0
-0.06816084 -0.01567410 0.14886910 0 0 0 0
-0.01577058 -0.09606772 0.08003874 0 0 0 0
0.04287286 -0.10345736 0.18010384 0 0 0 0
0.02756170 -0.11023378 0.19073887 0 0 0 0
0.05185368 -0.08344734 0.10045831 0 0 0 0
0.06980659 -0.05578995 0.14089966 0 0 0 0
-0.07846753 0.02445453 0.02037670 0 0 0 0
0.04774741 -0.09962465 0.17983465 0 0 0 0
-0.05571749 -0.06593964 0.02007842 0 0 0 0
-0.04197738 -0.10174973 0.20853147 0 0 0 0
-0.07580044 0.02433149 0.00027227 0 0 0 0
0.07416663 0.00026952 0.22009288 0 0 0 0
0.06642564 -0.07615153 0.20012014 0 0 0 0
0.07055376 -0.06323224 0.21896754 0 0 0 0
-0.07860235 0.01462393 0.03026105 0 0 0 0
0.06077611 0.01121515 0.06672588 0 0 0 0
0.08006654 -0.00596049 0.17278531 0 0 0 0
0.07798069 -0.00612969 0.16773054 0 0 0 0
0.07813055 -0.01591895 0.16806647 0 0 0 0
0.02428834 0.08158277 0.00190146 0 0 0 0
0.05737819 -0.08924118 0.16976282 0 0 0 0
0.02586523 -0.10980784 0.20069206 0 0 0 0
0.06287830 -0.01603519 0.14043048 0 0 0 0
0.05656406 -0.03626214 0.26269615 0 0 0 0
-0.07168824 0.00197599 0.05739725 0 0 0 0
-0.05937527 -0.07899474 0.11954137 0 0 0 0
0.04767185 -0.09946708 0.19018178 0 0 0 0
0.07618238 -0.05582361 0.19988446 0 0 0 0
-0.07280745 0.04281753 0.00950442 0 0 0 0
0.00438415 -0.00258083 0.11673836 0 0 0 0
-0.03559133 -0.10636039 0.16000271 0 0 0 0
-0.02346378 0.05015817 0.05588941 0 0 0 0
-0.07989512 0.02678856 0.01141147 0 0 0 0
-0.04010310 -0.08036914 0.04826644 0 0 0 0
0.07998080 -0.01547540 0.17306571 0 0 0 0
-0.02613270 0.06542803 0.04095625 0 0 0 0
-0.00545034 0.00660629 0.09248586 0 0 0 0
-0.06345762 -0.07501437 0.21954733 0 0 0 0
0.07960184 -0.03130097 0.22566569 0 0 0 0
-0.06198408 -0.03484302 0.25670090 0 0 0 0
-0.05805036 -0.07721356 0.23058370 0 0 0 0
0.03436913 0.04406287 0.00004124 0 0 0 0
0.04454476 0.00026800 0.21001875 0 0 0 0
-0.07182331 -0.06397295 0.17032437 0 0 0 0
0.07894933 -0.03863089 0.17698772 0 0 0 0
-0.05132728 -0.07130188 0.03054183 0 0 0 0
0.04478161 -0.09628376 0.21988879 0 0 0 0
0.06075677 -0.08267355 0.20926137 0 0 0 0
0.01399834 0.00018882 0.12153360 0 0 0 0
0.06838030 -0.04580928 0.13006411 0 0 0 0
-0.06991539 -0.03804584 0.24417283 0 0 0 0
-0.04070402 0.06947576 0.02567757 0 0 0 0
-0.05970835 -0.04835699 0.25387061 0 0 0 0
0.04241529 -0.10267192 0.19953921 0 0 0 0
-0.00606025 0.02784138 0.07401319 0 0 0 0
-0.05174569 0.06014438 0.02680910 0 0 0 0
-0.02551469 0.00027831 0.26995212 0 0 0 0
0.06503157 -0.06584553 0.10002658 0 0 0 0
0.00436062 -0.11429980 0.15996909 0 0 0 0
-0.05477577 -0.07564718 0.23936878 0 0 0 0
0.03425173 -0.10483082 0.20982708 0 0 0 0
-0.06468628 -0.07601006 0.14981917 0 0 0 0
-0.05998828 0.05834905 0.01213098 0 0 0 0
-0.02573873 0.00027141 0.23020820 0 0 0 0
0.07122140 -0.05500467 0.22907688 0 0 0 0
-0.07159467 0.04084308 0.01788362 0 0 0 0
-0.05040847 -0.08994531 0.12671730 0 0 0 0
0.08123928 0.00014522 0.18050738 0 0 0 0
0.06338231 -0.01588421 0.08992307 0 0 0 0
0.06860932 -0.02457954 0.14652394 0 0 0 0
-0.04452010 -0.00903726 0.10935233 0 0 0 0
0.05183231 -0.09336668 0.15027311 0 0 0 0
-0.05615150 -0.01583974 0.12999982 0 0 0 0
0.01476948 0.06699544 0.04315191 0 0 0 0
-0.00556205 0.00027477 0.24977404 0 0 0 0
0.07393034 -0.00587006 0.15976444 0 0 0 0
0.07134291 -0.06515453 0.20953451 0 0 0 0
0.08237060 -0.00574881 0.18004364 0 0 0 0
0.08200501 -0.01591792 0.17995574 0 0 0 0
-0.06306098 0.05195387 0.01947818 0 0 0 0
-0.04274514 0.07049999 0.01873263 0 0 0 0
-0.05506651 -0.04559707 0.26046664 0 0 0 0
0.00443964 0.02326001 0.07807539 0 0 0 0
0.04099567 -0.10184814 0.20891167 0 0 0 0
0.04809733 -0.07041347 0.25424224 0 0 0 0
-0.02555827 -0.02584288 0.28220496 0 0 0 0
0.07229549 -0.06597497 0.19004464 0 0 0 0
0.03136428 -0.09175629 0.08167107 0 0 0 0
0.07235210 -0.04580383 0.04006003 0 0 0 0
0.06877270 -0.06953479 0.15919854 0 0 0 0
0.02320871 -0.09198703 0.07089699 0 0 0 0
-0.02602998 -0.00593429 0.28386784 0 0 0 0
0.07847143 -0.04844794 0.18962602 0 0 0 0
0.07405315 -0.00591500 0.00004148 0 0 0 0
0.02367786 -0.10244784 0.22819296 0 0 0 0
-0.00563315 0.00027826 0.26983118 0 0 0 0
0.04280524 -0.10329368 0.17006035 0 0 0 0
0.05782939 -0.08910257 0.18002433 0 0 0 0
0.08333618 -0.02599657 0.20994288 0 0 0 0
0.06586642 -0.02569929 0.14000900 0 0 0 0
-0.04613696 -0.00538697 0.10021093 0 0 0 0
0.05234834 -0.09398146 0.16002150 0 0 0 0
0.01454862 0.01663328 0.08275270 0 0 0 0
-0.08347252 -0.02591694 0.20000103 0 0 0 0
0.05436422 0.00409685 0.07997827 0 0 0 0
-0.00531522 0.00026283 0.18014282 0 0 0 0
0.07023256 -0.00628312 0.15366274 0 0 0 0
-0.04074162 -0.09102196 0.09502476 0 0 0 0
0.05833418 -0.01268456 0.13628000 0 0 0 0
0.04443607 0.00025574 0.13970307 0 0 0 0
0.00426824 -0.05472730 0.27704406 0 0 0 0
0.07620902 -0.01599537 0.24063754 0 0 0 0
-0.01440783 -0.10163021 0.10203898 0 0 0 0
0.04362278 0.00013454 0.13181791 0 0 0 0
0.08165208 0.02381471 0.00213589 0 0 0 0
0.06828737 -0.06806219 0.14948736 0 0 0 0
-0.02567710 0.04387839 0.00004120 0 0 0 0
-0.06222135 0.04129621 0.03715000 0 0 0 0
0.07863096 -0.04844711 0.20031029 0 0 0 0
0.08371571 -0.02590548 0.19989856 0 0 0 0
-0.08202883 0.01345522 0.01941070 0 0 0 0
-0.02933458 -0.11040396 0.18015161 0 0 0 0
-0.07569109 -0.01576153 0.00004155 0 0 0 0
0.05490278 -0.08640961 0.21998468 0 0 0 0
-0.08469977 -0.01600029 0.19995104 0 0 0 0
-0.08052295 -0.04061797 0.20040563 0 0 0 0
0.06034549 -0.07166067 0.23539284 0 0 0 0
0.06147971 -0.00644696 0.14248341 0 0 0 0
0.06960848 -0.05204668 0.23633055 0 0 0 0
-0.02557169 0.00026969 0.22004469 0 0 0 0
0.06557187 -0.06616873 0.22983460 0 0 0 0
-0.01577363 0.00025750 0.14986257 0 0 0 0
0.06327913 -0.00585099 0.26045322 0 0 0 0
0.02426163 -0.10852310 0.20997746 0 0 0 0
-0.00568084 -0.00041776 0.28751388 0 0 0 0
0.04293358 -0.10316354 0.18991311 0 0 0 0
0.07715397 -0.04580953 0.21980970 0 0 0 0
0.06765176 -0.06784632 0.22034670 0 0 0 0
0.08459026 -0.01597420 0.20995195 0 0 0 0
0.05728779 -0.07811409 0.23114133 0 0 0 0
0.03358543 -0.09293146 0.09040382 0 0 0 0
-0.05778115 -0.05641659 0.25174543 0 0 0 0
0.01404938 0.05399293 0.00004119 0 0 0 0
