ply
format ascii 1.0
comment https://github.com/mikedh/trimesh
element vertex 1065
property float x
property float y
property float z
property uchar red
property uchar green
property uchar blue
property uchar alpha
end_header
-0.03610869 0.02364192 -0.06069793 0 0 0 0
-0.02612798 0.03366826 -0.06069792 0 0 0 0
0.00390470 0.06366317 -0.05287567 0 0 0 0
-0.03609253 0.01358686 -0.06069789 0 0 0 0
-0.00614465 0.04360373 -0.06069792 0 0 0 0
-0.03615762 0.00362889 -0.06069791 0 0 0 0
-0.01605861 0.02360295 -0.06069792 0 0 0 0
-0.00609967 0.03364170 -0.06069792 0 0 0 0
0.02947256 0.05924178 -0.04570555 0 0 0 0
-0.03608165 -0.00634184 -0.06069796 0 0 0 0
-0.03611376 -0.01631083 -0.06069795 0 0 0 0
-0.02609099 -0.00636136 -0.06069794 0 0 0 0
-0.01604956 0.00364335 -0.06069794 0 0 0 0
-0.02611016 -0.01637394 -0.06069792 0 0 0 0
-0.01614033 -0.00628514 -0.06069794 0 0 0 0
-0.00609058 0.00363356 -0.06069794 0 0 0 0
0.01385547 0.02372264 -0.06069789 0 0 0 0
-0.00615849 -0.00637938 -0.06069794 0 0 0 0
-0.00607523 -0.01641214 -0.06069796 0 0 0 0
0.00388307 -0.00632680 -0.06069800 0 0 0 0
0.03390734 0.02370895 -0.06069792 0 0 0 0
0.03386608 0.01366046 -0.06069796 0 0 0 0
-0.02190436 -0.06167806 -0.03588058 0 0 0 0
-0.00607789 0.02368912 -0.06069792 0 0 0 0
0.01391448 -0.02631825 -0.06069794 0 0 0 0
0.02383597 -0.01634675 -0.06069795 0 0 0 0
0.04394423 0.00370938 -0.06069795 0 0 0 0
0.02393677 -0.02638450 -0.06069792 0 0 0 0
0.03388571 -0.01633535 -0.06069796 0 0 0 0
0.04383134 -0.00631431 -0.06069798 0 0 0 0
0.04932812 -0.03176586 -0.04578809 0 0 0 0
-0.01005472 -0.07115193 0.05420662 0 0 0 0
0.01798177 -0.03899121 0.06417310 0 0 0 0
0.03821234 0.00677176 0.05393574 0 0 0 0
-0.01620814 0.01362410 -0.06069792 0 0 0 0
0.01882143 -0.01204580 0.06421166 0 0 0 0
0.00392829 -0.03638041 0.06589399 0 0 0 0
0.01382069 -0.01642432 0.06534275 0 0 0 0
-0.01337563 -0.04325143 0.06465250 0 0 0 0
-0.00610918 -0.03632564 0.06585760 0 0 0 0
0.00384004 -0.01633397 0.06635818 0 0 0 0
-0.00610866 -0.02631307 0.06648684 0 0 0 0
-0.02003850 -0.03817494 0.06414387 0 0 0 0
0.00390848 -0.00633508 0.06573177 0 0 0 0
-0.00615273 -0.01635671 0.06630301 0 0 0 0
-0.01607860 -0.02635454 0.06544988 0 0 0 0
0.00570335 0.00717820 0.06408849 0 0 0 0
-0.02157210 -0.01932817 0.06437796 0 0 0 0
0.00341918 0.00274281 0.06480881 0 0 0 0
-0.00753103 0.00714167 0.06407433 0 0 0 0
0.01802014 0.04739287 0.05405173 0 0 0 0
-0.00615357 0.01367441 0.06314681 0 0 0 0
0.03882303 0.07758702 0.03364639 0 0 0 0
0.02819575 0.07515889 0.04380237 0 0 0 0
-0.05125755 -0.01043567 0.04435059 0 0 0 0
0.00258828 0.06049019 0.05465603 0 0 0 0
0.00444356 0.06489924 0.05365783 0 0 0 0
-0.00605788 0.05357623 0.05579947 0 0 0 0
-0.01106715 0.05862496 0.05423786 0 0 0 0
-0.01984443 0.04714637 0.05396907 0 0 0 0
-0.05132162 0.04974332 0.02483808 0 0 0 0
-0.05135274 0.07216754 0.01529320 0 0 0 0
-0.00636957 -0.04671999 -0.06054693 0 0 0 0
-0.00545335 -0.05203130 -0.05783010 0 0 0 0
0.00389391 0.07371239 -0.05194969 0 0 0 0
-0.01328803 -0.05164876 -0.05655884 0 0 0 0
0.00387710 -0.05520843 -0.05048664 0 0 0 0
-0.00619678 -0.05508312 -0.05047906 0 0 0 0
0.04827841 -0.03103251 -0.04525764 0 0 0 0
0.00407135 -0.05961959 -0.04275665 0 0 0 0
-0.00589166 -0.06268732 -0.03782045 0 0 0 0
-0.02064521 -0.06120435 -0.03545407 0 0 0 0
0.01383695 -0.06570892 -0.03058800 0 0 0 0
-0.00630394 -0.07029409 -0.02405415 0 0 0 0
0.01432187 -0.06988435 -0.02286790 0 0 0 0
0.01346896 -0.07279843 -0.01824540 0 0 0 0
-0.01555754 -0.07264332 -0.01806354 0 0 0 0
-0.02249967 -0.07190134 -0.01671052 0 0 0 0
-0.04178318 -0.06187792 -0.01658347 0 0 0 0
0.00397615 -0.07710399 -0.01091645 0 0 0 0
-0.00618155 -0.07707363 -0.01082456 0 0 0 0
-0.01611334 -0.07594024 -0.01055234 0 0 0 0
0.00422465 -0.08042596 -0.00324881 0 0 0 0
-0.00651040 -0.08037380 -0.00310988 0 0 0 0
0.01164199 -0.08194668 0.00252164 0 0 0 0
-0.01363300 -0.08186679 0.00282848 0 0 0 0
0.04886904 -0.06126585 0.00582602 0 0 0 0
0.01811394 -0.08117861 0.00505328 0 0 0 0
0.00391571 -0.08426055 0.00934116 0 0 0 0
-0.00603462 -0.08421006 0.00932340 0 0 0 0
-0.01587211 -0.08297318 0.00954612 0 0 0 0
-0.02268013 -0.08187393 0.01159440 0 0 0 0
0.01386767 -0.08460900 0.01928630 0 0 0 0
0.00389579 -0.08580913 0.01921408 0 0 0 0
-0.00602604 -0.08573952 0.01921972 0 0 0 0
-0.01601829 -0.08440050 0.01930318 0 0 0 0
0.01387430 -0.08440778 0.02925891 0 0 0 0
0.00389689 -0.08566527 0.02914418 0 0 0 0
-0.00602802 -0.08559412 0.02915286 0 0 0 0
-0.01602923 -0.08418781 0.02930995 0 0 0 0
-0.04146389 -0.07160737 0.03489421 0 0 0 0
-0.02198629 -0.08166503 0.03533603 0 0 0 0
-0.01524430 -0.08253439 0.03743951 0 0 0 0
0.01314261 -0.08263341 0.03766181 0 0 0 0
-0.00631849 -0.05957978 -0.04259862 0 0 0 0
0.00383152 -0.08331246 0.03890996 0 0 0 0
0.00415443 -0.08105694 0.04364965 0 0 0 0
-0.01612119 0.03365236 -0.06069792 0 0 0 0
0.01585318 -0.07025601 0.05356589 0 0 0 0
0.01368804 -0.07563902 0.04897285 0 0 0 0
-0.03174371 -0.06211723 0.05472611 0 0 0 0
0.00998761 -0.07156839 0.05448398 0 0 0 0
0.00396999 -0.07677321 0.04931338 0 0 0 0
0.00307161 -0.07191850 0.05459487 0 0 0 0
0.00382750 -0.06641704 0.05766808 0 0 0 0
0.01389111 -0.05644353 0.06105339 0 0 0 0
-0.01679262 -0.04714831 0.06336676 0 0 0 0
0.01462731 -0.04727622 0.06341429 0 0 0 0
0.00473443 -0.04968182 0.06396728 0 0 0 0
-0.00703513 -0.04966784 0.06394961 0 0 0 0
-0.00576931 -0.04479354 0.06493733 0 0 0 0
0.00816786 -0.07108901 0.05425164 0 0 0 0
-0.00600277 0.05136391 -0.05794147 0 0 0 0
0.00379034 0.05161140 -0.05802742 0 0 0 0
-0.00665799 0.05600668 -0.05440141 0 0 0 0
0.00388909 0.01362966 0.06321865 0 0 0 0
0.01971265 0.04898228 -0.05609284 0 0 0 0
-0.00607477 0.08059731 -0.04899128 0 0 0 0
0.01389487 -0.00638889 -0.06069801 0 0 0 0
-0.04087216 0.03790926 -0.04526439 0 0 0 0
-0.01620918 0.08089537 -0.04096635 0 0 0 0
-0.00612547 0.08089535 -0.04096342 0 0 0 0
0.01403760 0.08089533 -0.04095755 0 0 0 0
-0.02628999 0.08089536 -0.03088019 0 0 0 0
-0.01620655 0.08089534 -0.03087797 0 0 0 0
-0.00612456 0.08089536 -0.03087576 0 0 0 0
0.01403510 0.08089533 -0.03087134 0 0 0 0
0.02411276 0.08089533 -0.03086912 0 0 0 0
-0.03636884 0.08089536 -0.02079599 0 0 0 0
-0.02628566 0.08089536 -0.02079450 0 0 0 0
-0.01620393 0.08089536 -0.02079301 0 0 0 0
0.01392201 0.03368255 -0.06069791 0 0 0 0
-0.00612364 0.08089535 -0.02079152 0 0 0 0
0.01403260 0.08089531 -0.02078854 0 0 0 0
0.02410855 0.08089531 -0.02078705 0 0 0 0
0.03418307 0.08089531 -0.02078556 0 0 0 0
-0.03636279 0.08089534 -0.01071300 0 0 0 0
-0.02628133 0.08089535 -0.01071223 0 0 0 0
0.01387069 -0.03630020 -0.06069794 0 0 0 0
-0.01620130 0.08089535 -0.01071147 0 0 0 0
-0.00612273 0.08089535 -0.01071070 0 0 0 0
0.00395441 0.08089534 -0.01070993 0 0 0 0
0.01403010 0.08089533 -0.01070916 0 0 0 0
0.03417715 0.08089534 -0.01070763 0 0 0 0
0.04388885 0.08089535 -0.01070689 0 0 0 0
-0.04607788 0.08089534 -0.00063347 0 0 0 0
-0.01619868 0.08089533 -0.00063334 0 0 0 0
0.01402760 0.08089533 -0.00063320 0 0 0 0
-0.01587774 -0.07557030 0.04884556 0 0 0 0
0.02410014 0.08089535 -0.00063316 0 0 0 0
0.03417123 0.08089536 -0.00063311 0 0 0 0
0.04388129 0.08089536 -0.00063307 0 0 0 0
-0.01448819 -0.06216910 -0.03708053 0 0 0 0
-0.03635071 0.08089537 0.00944273 0 0 0 0
-0.02627266 0.08089536 0.00944205 0 0 0 0
0.01402510 0.08089530 0.00943935 0 0 0 0
-0.01740308 -0.08018070 0.04184332 0 0 0 0
0.02409594 0.08089530 0.00943867 0 0 0 0
0.03416532 0.08089534 0.00943799 0 0 0 0
0.04387373 0.08089536 0.00943734 0 0 0 0
-0.02626833 0.08089537 0.01951407 0 0 0 0
0.00395203 0.08089535 0.01950988 0 0 0 0
0.01402260 0.08089534 0.01950848 0 0 0 0
-0.00611907 0.08089537 0.02957844 0 0 0 0
-0.00612090 0.08089533 0.00944070 0 0 0 0
0.02408752 0.08089538 0.02957208 0 0 0 0
-0.06230153 -0.00601097 -0.02946144 0 0 0 0
0.03419926 0.08088566 0.02961045 0 0 0 0
0.04301842 -0.05619047 0.04916596 0 0 0 0
0.00395047 0.08089536 0.03928004 0 0 0 0
0.00389812 0.04363710 0.05777436 0 0 0 0
-0.04487630 0.02316874 -0.05895317 0 0 0 0
0.00387384 0.00367210 -0.06069795 0 0 0 0
-0.05297814 -0.04453996 -0.01997702 0 0 0 0
-0.04174669 -0.03229243 -0.05698311 0 0 0 0
-0.00607544 0.02366171 0.06150932 0 0 0 0
-0.05292931 0.00340277 0.03759581 0 0 0 0
-0.04420470 -0.02585288 -0.05881348 0 0 0 0
0.05445072 -0.04641861 0.02927388 0 0 0 0
-0.04226156 0.02999279 -0.05755142 0 0 0 0
0.02500898 -0.02636701 0.06330192 0 0 0 0
-0.03617170 0.03359145 -0.05942159 0 0 0 0
0.01381906 -0.07617019 -0.01062776 0 0 0 0
-0.04660436 -0.01621625 -0.05957730 0 0 0 0
-0.01643681 0.04411695 -0.06020012 0 0 0 0
-0.03201922 -0.04189691 -0.05702427 0 0 0 0
0.03389725 0.00360769 -0.06069799 0 0 0 0
0.04004023 -0.06242703 -0.01804244 0 0 0 0
-0.03570175 -0.03603336 -0.05911887 0 0 0 0
-0.02551850 -0.04447634 -0.05886725 0 0 0 0
-0.01606046 -0.04694056 -0.05972472 0 0 0 0
-0.01458744 0.04982564 -0.05743182 0 0 0 0
0.02069769 -0.08172693 0.03562790 0 0 0 0
-0.05378184 0.04327413 -0.02055512 0 0 0 0
-0.01787014 -0.05048065 -0.05409332 0 0 0 0
-0.05289341 0.01308175 -0.05007317 0 0 0 0
-0.01659939 0.05390991 -0.05339322 0 0 0 0
-0.00608119 0.06361535 -0.05264597 0 0 0 0
0.01387280 0.00362117 -0.06069798 0 0 0 0
0.05927193 0.02978676 -0.01772089 0 0 0 0
-0.00607685 0.07359914 -0.05173495 0 0 0 0
-0.05187548 -0.02346299 -0.04687465 0 0 0 0
-0.05179399 0.01974041 -0.04714647 0 0 0 0
-0.04387356 -0.03516414 -0.04973533 0 0 0 0
-0.04342824 0.03186588 -0.04992504 0 0 0 0
-0.03503649 -0.04447734 -0.04966396 0 0 0 0
-0.01615159 0.07365987 -0.04944072 0 0 0 0
-0.01547092 0.08031003 -0.04808609 0 0 0 0
-0.02390994 -0.05250070 -0.04758946 0 0 0 0
-0.02418085 0.06312025 -0.04738365 0 0 0 0
0.05796548 -0.03932886 -0.01175196 0 0 0 0
-0.02255029 0.07958973 -0.04647693 0 0 0 0
-0.01562688 -0.05388997 -0.04966953 0 0 0 0
-0.05022967 -0.02968929 -0.04423015 0 0 0 0
0.04720347 -0.05736021 0.04045545 0 0 0 0
0.00389380 0.08070382 0.04882817 0 0 0 0
-0.03862698 -0.03869018 -0.05278607 0 0 0 0
0.04938038 0.08019489 0.01623796 0 0 0 0
-0.02983475 -0.05090286 -0.04479622 0 0 0 0
-0.04970855 0.02656744 -0.04350011 0 0 0 0
-0.02900095 0.06436610 -0.04444417 0 0 0 0
-0.02796198 0.07381743 -0.04383881 0 0 0 0
-0.02597173 0.08070801 -0.04054789 0 0 0 0
-0.05814897 -0.00629231 -0.04078782 0 0 0 0
0.02052613 -0.06175789 -0.03665581 0 0 0 0
-0.05651152 -0.01647373 -0.04077900 0 0 0 0
-0.05637464 0.01397841 -0.04072608 0 0 0 0
-0.04765451 -0.03698431 -0.04123130 0 0 0 0
-0.04686244 0.03401848 -0.04088448 0 0 0 0
-0.03754990 -0.04830279 -0.04211234 0 0 0 0
-0.05819562 0.00374817 -0.04085209 0 0 0 0
-0.04192636 0.05064647 -0.03638061 0 0 0 0
-0.02610718 0.00368385 -0.06069791 0 0 0 0
0.01390674 0.01367002 -0.06069794 0 0 0 0
-0.03660219 0.05379859 -0.04103743 0 0 0 0
-0.05032152 0.07391331 -0.01299210 0 0 0 0
-0.05383079 -0.02599375 -0.04023525 0 0 0 0
-0.01618829 0.08089534 0.03928567 0 0 0 0
-0.03519226 0.06346911 -0.03964460 0 0 0 0
-0.03443613 0.07355022 -0.03886166 0 0 0 0
-0.03375243 0.08023657 -0.03801581 0 0 0 0
-0.04076449 0.05734192 -0.03528566 0 0 0 0
-0.05175309 0.00329207 -0.05753756 0 0 0 0
-0.06053354 -0.00680365 -0.03452640 0 0 0 0
-0.04056195 -0.05082215 -0.03448765 0 0 0 0
-0.02613146 0.01365701 0.05890283 0 0 0 0
-0.04105491 -0.07126340 0.03366050 0 0 0 0
-0.05002516 0.03678675 -0.03370456 0 0 0 0
-0.02607366 0.02367677 -0.06069795 0 0 0 0
-0.03945192 0.07390017 -0.03367118 0 0 0 0
-0.03634467 0.08089538 0.01951547 0 0 0 0
-0.05428407 0.00380194 -0.05062765 0 0 0 0
-0.03625899 0.08076328 -0.03074477 0 0 0 0
-0.05007161 -0.03987940 -0.03343203 0 0 0 0
0.02921012 0.02950525 0.05477510 0 0 0 0
0.03114049 -0.06246683 -0.02776449 0 0 0 0
-0.05973870 -0.01695661 -0.03193572 0 0 0 0
-0.06176855 -0.01430593 -0.02777810 0 0 0 0
-0.05469632 -0.04644551 -0.01054146 0 0 0 0
-0.06231876 0.00350727 -0.02948133 0 0 0 0
-0.06170701 0.01181227 -0.02787256 0 0 0 0
0.02433549 -0.06844685 -0.02105804 0 0 0 0
0.03375283 -0.06498653 -0.02039514 0 0 0 0
-0.06092273 -0.02073947 -0.02553282 0 0 0 0
-0.04816932 0.04397085 -0.03156083 0 0 0 0
-0.05372397 0.03308324 -0.03021729 0 0 0 0
-0.01615787 0.06370804 0.05187452 0 0 0 0
-0.05201389 0.04068726 -0.02744033 0 0 0 0
0.04255050 0.04344043 0.03879213 0 0 0 0
-0.04374436 0.06339023 -0.02949237 0 0 0 0
0.00393895 0.05623734 -0.05456005 0 0 0 0
-0.03630145 -0.01629864 0.05959386 0 0 0 0
0.02692660 -0.07073391 -0.01424447 0 0 0 0
-0.04286396 0.08019712 -0.02796805 0 0 0 0
-0.05658967 -0.04641275 -0.00076913 0 0 0 0
-0.06444597 0.00369774 -0.02077546 0 0 0 0
-0.06306925 0.01361387 -0.02084887 0 0 0 0
-0.01611336 -0.03636568 -0.06069792 0 0 0 0
-0.06177701 0.02095004 -0.01892104 0 0 0 0
-0.04938926 -0.04875551 -0.02209427 0 0 0 0
0.03484015 0.06399549 0.04064450 0 0 0 0
0.01431152 0.00409537 0.06331754 0 0 0 0
-0.05683030 -0.03641493 -0.02060251 0 0 0 0
-0.05714166 0.03378011 -0.02071445 0 0 0 0
-0.05200481 0.05173340 -0.01815974 0 0 0 0
-0.04959694 0.05453864 -0.02200904 0 0 0 0
-0.02643388 -0.06803433 -0.02085231 0 0 0 0
-0.05079020 -0.05088207 -0.01368703 0 0 0 0
-0.02880416 -0.07044660 -0.01389796 0 0 0 0
-0.04189683 0.06220908 0.03507210 0 0 0 0
-0.05909527 -0.03663549 -0.01109171 0 0 0 0
-0.04622858 0.00380296 -0.06062261 0 0 0 0
-0.06555120 0.00368860 -0.01084930 0 0 0 0
0.00385122 0.02360614 0.06156991 0 0 0 0
0.01385430 -0.08314193 0.00943202 0 0 0 0
-0.04658536 -0.00662412 -0.06045746 0 0 0 0
-0.05286501 -0.01591707 -0.04974227 0 0 0 0
-0.06081251 0.02720154 -0.01143272 0 0 0 0
-0.03278745 -0.07221117 -0.00730610 0 0 0 0
-0.03663240 -0.06794963 -0.01113766 0 0 0 0
-0.05214651 0.06310113 -0.00972356 0 0 0 0
-0.05137740 0.08009108 -0.00713752 0 0 0 0
0.00391438 0.03362562 -0.06069792 0 0 0 0
-0.05696892 0.04360909 -0.00071665 0 0 0 0
-0.05471180 0.05366462 -0.00068752 0 0 0 0
-0.05323656 0.06367414 -0.00069063 0 0 0 0
-0.05171359 0.08023952 -0.00049758 0 0 0 0
-0.06565664 -0.00611722 -0.00066146 0 0 0 0
0.03721923 0.04618549 -0.04418116 0 0 0 0
-0.06515167 0.00369303 -0.00066181 0 0 0 0
0.04578068 -0.04759784 -0.03145577 0 0 0 0
-0.06082084 0.02696913 -0.00005981 0 0 0 0
-0.04167245 -0.07204309 0.01119515 0 0 0 0
-0.04587544 -0.06639370 0.00944973 0 0 0 0
0.00390994 0.08060908 -0.04909896 0 0 0 0
0.04401656 -0.05634982 -0.02078997 0 0 0 0
-0.05822576 0.03379337 0.00892846 0 0 0 0
-0.05626931 0.04367517 0.00907232 0 0 0 0
-0.05432476 0.05374650 0.00911959 0 0 0 0
-0.03930412 -0.05985415 -0.02315230 0 0 0 0
0.05718589 0.02408925 0.01961275 0 0 0 0
-0.05267461 -0.05395423 -0.00031081 0 0 0 0
-0.06343929 0.00371187 0.00961894 0 0 0 0
-0.01619344 0.08089536 0.01951267 0 0 0 0
-0.06078710 0.01658306 0.01309537 0 0 0 0
0.04785357 -0.04995240 -0.02349134 0 0 0 0
-0.05996170 0.02433594 0.00992493 0 0 0 0
0.05847228 0.02682634 0.01214247 0 0 0 0
-0.05199756 -0.05272492 -0.00784952 0 0 0 0
-0.06179454 0.00311174 0.01666020 0 0 0 0
0.03238934 0.01307475 0.05600580 0 0 0 0
0.04987117 -0.01472782 -0.05799181 0 0 0 0
-0.05174779 0.06207491 0.01629674 0 0 0 0
-0.05030140 -0.05987930 0.00836747 0 0 0 0
-0.06213437 -0.01604230 0.01779808 0 0 0 0
-0.02530416 -0.06360076 -0.02939567 0 0 0 0
-0.06220575 -0.00642954 0.01751699 0 0 0 0
0.02385235 0.00369493 -0.06069799 0 0 0 0
-0.04201777 -0.07252863 0.01932546 0 0 0 0
0.02392478 -0.00630711 -0.06069801 0 0 0 0
-0.04664257 -0.06647053 0.01930688 0 0 0 0
-0.05053680 -0.06003059 0.01979788 0 0 0 0
-0.01619082 0.08089535 0.02958056 0 0 0 0
-0.05936915 0.01394557 0.01958875 0 0 0 0
0.00385135 0.02359621 -0.06069792 0 0 0 0
-0.05256046 0.05314869 0.01825473 0 0 0 0
0.03041610 0.06231061 0.04507373 0 0 0 0
0.01054414 0.00033402 0.06454420 0 0 0 0
-0.06280361 -0.02618968 -0.01082461 0 0 0 0
-0.06011545 -0.03766257 0.00970804 0 0 0 0
-0.04985799 0.06421372 0.02067951 0 0 0 0
-0.00606005 -0.03629310 -0.06069791 0 0 0 0
-0.01543157 -0.03601284 0.06499568 0 0 0 0
-0.04346006 0.04250009 -0.03891163 0 0 0 0
-0.06055938 -0.01626716 0.02271604 0 0 0 0
-0.06036897 -0.00593771 0.02243335 0 0 0 0
-0.05185683 0.04218908 0.02600642 0 0 0 0
-0.04366492 0.08033645 0.02777729 0 0 0 0
-0.05067572 0.04719871 -0.02483151 0 0 0 0
0.00395282 0.08089531 0.00944002 0 0 0 0
-0.05285092 0.03306163 0.02774180 0 0 0 0
-0.04579106 -0.06658003 0.02926824 0 0 0 0
0.01955446 -0.01862942 0.06442542 0 0 0 0
-0.02883542 -0.08042930 0.01929641 0 0 0 0
-0.03639119 -0.07651434 0.01928419 0 0 0 0
-0.05091849 0.02732052 0.03344491 0 0 0 0
0.05799821 0.03601859 -0.01139988 0 0 0 0
-0.05552052 0.01376810 0.02931526 0 0 0 0
0.04251275 -0.04540375 -0.03989144 0 0 0 0
-0.05388787 0.02343815 0.02929451 0 0 0 0
-0.05146835 0.02038122 0.03514485 0 0 0 0
-0.03480018 0.08041373 0.03783436 0 0 0 0
-0.02630797 -0.07821769 0.03953665 0 0 0 0
-0.03530899 -0.07412528 0.03878636 0 0 0 0
-0.00612181 0.08089532 -0.00063329 0 0 0 0
-0.03608859 0.07354932 0.03900211 0 0 0 0
-0.05137292 0.00982258 -0.05656385 0 0 0 0
-0.03800744 0.05408288 0.04156322 0 0 0 0
-0.03941723 -0.06984808 0.04165944 0 0 0 0
-0.04397812 -0.06561217 0.03892073 0 0 0 0
0.01401769 0.08089536 0.03927723 0 0 0 0
0.05209024 -0.04589525 -0.02046841 0 0 0 0
-0.04084759 -0.07072693 0.00637008 0 0 0 0
-0.04559595 0.03355062 0.03938346 0 0 0 0
0.02390484 0.01365107 -0.06069792 0 0 0 0
-0.03199234 0.06123133 0.04483352 0 0 0 0
-0.03245759 -0.07219080 0.04537165 0 0 0 0
-0.06401452 -0.01625115 0.00959848 0 0 0 0
-0.04819729 -0.05646833 0.03942125 0 0 0 0
-0.05318967 -0.03610687 0.03915355 0 0 0 0
-0.05397673 -0.02635487 0.03911332 0 0 0 0
-0.05390413 -0.01642675 0.03916730 0 0 0 0
-0.03040398 0.02723148 0.05410835 0 0 0 0
0.02409173 0.08089533 0.01950708 0 0 0 0
-0.00598388 -0.06668742 -0.03080661 0 0 0 0
-0.05353967 -0.00648918 0.03869957 0 0 0 0
-0.04994765 0.00457201 0.04245693 0 0 0 0
-0.05143617 -0.02623966 0.04477913 0 0 0 0
-0.00605441 -0.07317761 -0.01927684 0 0 0 0
-0.05134086 -0.01790891 0.04468256 0 0 0 0
0.01402010 0.08089536 0.02957420 0 0 0 0
0.05029758 -0.04340226 -0.02898499 0 0 0 0
-0.03548514 -0.06433153 -0.02007250 0 0 0 0
-0.04180107 0.03054632 0.04512273 0 0 0 0
-0.02062385 -0.01328595 0.06421198 0 0 0 0
0.04994179 -0.03588379 0.04589204 0 0 0 0
-0.02429344 0.08031648 0.04589014 0 0 0 0
-0.04003824 0.06432413 -0.03435115 0 0 0 0
-0.01578592 0.08057575 0.04777734 0 0 0 0
-0.02539211 -0.07387793 0.04728815 0 0 0 0
-0.04225150 -0.06311087 0.04617872 0 0 0 0
-0.03656006 -0.05702424 -0.03101327 0 0 0 0
0.02842197 0.05861783 -0.04560514 0 0 0 0
-0.02618466 0.06373968 0.04774410 0 0 0 0
-0.04800368 -0.02677915 -0.05113049 0 0 0 0
-0.06372181 0.01359082 -0.00065337 0 0 0 0
-0.01620923 0.07354675 0.05044076 0 0 0 0
-0.04907140 0.01400713 0.04102454 0 0 0 0
-0.03493334 0.04314383 0.04708276 0 0 0 0
-0.00559166 0.00255686 0.06478435 0 0 0 0
-0.01748859 0.05451660 0.05320088 0 0 0 0
-0.02653951 0.04392936 0.05190809 0 0 0 0
-0.02691396 -0.06830393 0.05196040 0 0 0 0
-0.05073314 -0.00491521 0.04342070 0 0 0 0
0.03731688 -0.06037014 -0.02464366 0 0 0 0
-0.03598461 -0.06612491 0.04893777 0 0 0 0
-0.01342189 0.05203384 0.05502296 0 0 0 0
0.05266816 0.02355239 -0.04061111 0 0 0 0
-0.03865054 -0.05858263 0.05287965 0 0 0 0
-0.06321995 -0.01612568 -0.02083709 0 0 0 0
0.04101274 -0.07323287 0.01946617 0 0 0 0
-0.04408918 -0.05586437 0.04852691 0 0 0 0
0.02387842 0.03361323 -0.06069791 0 0 0 0
-0.04035494 0.00645416 0.05381905 0 0 0 0
0.02386752 0.02361093 -0.06069792 0 0 0 0
-0.03871233 0.01436655 0.05272735 0 0 0 0
-0.02495215 -0.06381463 0.05582374 0 0 0 0
-0.04784140 -0.01624639 0.04970687 0 0 0 0
-0.02613206 -0.02638558 -0.06069796 0 0 0 0
0.04841085 -0.04860623 0.04297299 0 0 0 0
-0.04695668 -0.00635293 0.04938832 0 0 0 0
-0.05714290 0.02385554 -0.03077945 0 0 0 0
-0.03217025 0.02120505 0.05492412 0 0 0 0
-0.06419445 0.01356464 -0.01086089 0 0 0 0
-0.02408423 0.03304274 0.05565657 0 0 0 0
-0.01609151 0.03365201 0.05799395 0 0 0 0
-0.04219455 -0.00717251 0.05518467 0 0 0 0
-0.05969408 0.01446895 -0.03196456 0 0 0 0
0.04222421 0.07358333 -0.03025131 0 0 0 0
-0.03398298 0.01298152 0.05577053 0 0 0 0
0.02947125 0.07133152 0.04480273 0 0 0 0
-0.06156002 -0.03203480 -0.00844465 0 0 0 0
0.03144106 0.05308698 0.04620457 0 0 0 0
0.05022591 0.02116597 -0.04908411 0 0 0 0
-0.03515588 -0.05518715 0.05620694 0 0 0 0
-0.06584514 -0.00611548 -0.01083997 0 0 0 0
-0.04221345 -0.04533695 0.05537514 0 0 0 0
-0.04290333 -0.03596280 0.05625524 0 0 0 0
-0.04301283 -0.02635994 0.05637806 0 0 0 0
0.05430629 -0.00635958 -0.05066460 0 0 0 0
-0.04276583 -0.01677441 0.05603784 0 0 0 0
0.04151867 0.08035529 -0.02917957 0 0 0 0
-0.03588746 0.00344720 0.05683317 0 0 0 0
0.01385736 -0.01635758 -0.06069795 0 0 0 0
0.00382890 -0.06685954 -0.03067932 0 0 0 0
-0.01614271 0.01368206 0.06174485 0 0 0 0
-0.05929053 0.03373322 -0.00108496 0 0 0 0
0.05046348 -0.02476953 -0.04889286 0 0 0 0
-0.03634263 -0.04639972 0.05838176 0 0 0 0
-0.03623575 -0.00627087 0.05842047 0 0 0 0
0.06053670 0.02323799 -0.02059072 0 0 0 0
-0.01644134 0.00403602 0.06320404 0 0 0 0
-0.02612305 -0.04637483 0.06162655 0 0 0 0
-0.03601544 -0.07531618 0.00936580 0 0 0 0
-0.04799906 0.02409533 -0.05089646 0 0 0 0
-0.03631523 -0.03633501 0.05996346 0 0 0 0
-0.02709896 -0.02645381 0.06321876 0 0 0 0
0.02687731 0.07394493 -0.04461853 0 0 0 0
-0.02196697 -0.00946371 0.06440669 0 0 0 0
0.06402493 -0.01626217 0.00956232 0 0 0 0
0.06120924 -0.00617503 0.01946958 0 0 0 0
-0.01433871 -0.00722943 0.06494998 0 0 0 0
-0.05334560 0.02303182 -0.03985586 0 0 0 0
-0.00609156 -0.00634186 0.06568499 0 0 0 0
-0.02202214 -0.02561384 0.06450879 0 0 0 0
0.02408243 -0.03634599 0.06308820 0 0 0 0
0.05919131 0.00988052 -0.03628960 0 0 0 0
0.04995487 0.01269233 -0.05818018 0 0 0 0
0.05103249 -0.00628098 -0.05868708 0 0 0 0
0.04346604 -0.02595513 -0.05922983 0 0 0 0
-0.03870006 0.04493050 -0.04315379 0 0 0 0
0.04922167 0.07277581 -0.01671503 0 0 0 0
-0.06342573 -0.02677602 -0.00064699 0 0 0 0
-0.05721720 -0.04648395 0.00902851 0 0 0 0
0.04964408 -0.00739575 0.04539241 0 0 0 0
0.04046377 -0.03308466 -0.05802842 0 0 0 0
-0.00616635 -0.02633811 -0.06069791 0 0 0 0
-0.01653611 -0.06973512 -0.02274587 0 0 0 0
-0.03638290 0.08085430 0.02962142 0 0 0 0
0.00390280 -0.01630763 -0.06069796 0 0 0 0
-0.05210826 0.01292375 0.03615011 0 0 0 0
0.05833884 0.03665820 -0.00072415 0 0 0 0
0.04080872 0.03111331 -0.05828536 0 0 0 0
0.03146930 0.04090006 -0.05817897 0 0 0 0
0.02832076 -0.05133601 -0.04513368 0 0 0 0
0.03043498 -0.04259248 -0.05778767 0 0 0 0
0.02355808 0.04376538 -0.05928062 0 0 0 0
0.05704306 -0.02734626 -0.03151502 0 0 0 0
0.06284889 -0.02652367 -0.01083193 0 0 0 0
0.02336928 -0.04523500 -0.05913636 0 0 0 0
0.01312559 0.05033546 -0.05760782 0 0 0 0
0.03685692 -0.03980001 -0.05344748 0 0 0 0
0.01617774 -0.05058780 -0.05437544 0 0 0 0
-0.01654291 -0.05860704 -0.04148171 0 0 0 0
0.02640111 0.04686666 -0.05379743 0 0 0 0
0.03411123 0.07371113 0.03972246 0 0 0 0
0.01389092 0.01369088 0.06192404 0 0 0 0
0.04704446 0.02529022 -0.05154578 0 0 0 0
0.00358381 -0.06275359 -0.03794203 0 0 0 0
0.06398703 0.01365499 -0.01096131 0 0 0 0
0.04356447 -0.06611672 -0.00057868 0 0 0 0
0.05238618 0.01374012 -0.05076490 0 0 0 0
0.03375506 0.04332793 -0.05044165 0 0 0 0
0.04685538 -0.02787947 -0.05223390 0 0 0 0
0.03422271 0.03393392 -0.05998977 0 0 0 0
0.03516685 0.05411224 -0.04231796 0 0 0 0
0.01398453 0.06371307 -0.05132182 0 0 0 0
0.04302819 -0.03586574 -0.05033327 0 0 0 0
-0.05171693 0.02970218 -0.03716514 0 0 0 0
0.01389252 0.07358044 -0.05022475 0 0 0 0
0.00348956 -0.04483169 0.06495728 0 0 0 0
0.03953859 0.03953541 -0.04688672 0 0 0 0
0.04242401 0.03301021 -0.05020872 0 0 0 0
-0.05774448 0.02385872 0.01927313 0 0 0 0
0.04016129 -0.04262932 -0.04719344 0 0 0 0
0.02480038 -0.04884480 -0.05198820 0 0 0 0
0.03343046 -0.04537608 -0.05004375 0 0 0 0
-0.06488306 -0.01631289 -0.01084636 0 0 0 0
-0.02612221 -0.00632583 0.06213382 0 0 0 0
-0.03966627 0.04484184 0.04272286 0 0 0 0
0.02200593 0.07353191 -0.04734503 0 0 0 0
0.05110669 0.00365216 -0.05873928 0 0 0 0
-0.06412505 -0.00616342 0.00954993 0 0 0 0
0.00385148 0.05366216 0.05585591 0 0 0 0
-0.05001451 -0.04751432 0.04200708 0 0 0 0
-0.02610436 0.00367179 0.06072943 0 0 0 0
0.04729840 0.04431782 0.03164215 0 0 0 0
0.02331400 0.06335837 -0.04792611 0 0 0 0
0.04499492 0.05377219 -0.03086259 0 0 0 0
-0.02303345 0.07325611 -0.04672921 0 0 0 0
0.04819120 0.02778864 -0.04479774 0 0 0 0
0.01685499 -0.00482855 0.06392687 0 0 0 0
-0.04437728 0.07358178 0.02908395 0 0 0 0
-0.05167834 -0.00527094 -0.05726251 0 0 0 0
0.06098020 -0.02595102 -0.02068281 0 0 0 0
-0.01600862 -0.06545001 -0.03056680 0 0 0 0
-0.03635675 0.08089533 -0.00063343 0 0 0 0
-0.06060540 0.00425465 -0.03443148 0 0 0 0
0.03482674 0.02401298 0.05172136 0 0 0 0
0.02397694 0.08079727 -0.04081862 0 0 0 0
0.05954072 0.00305702 -0.03760610 0 0 0 0
0.02267489 -0.05278154 -0.04800113 0 0 0 0
-0.06514400 -0.01632321 -0.00066374 0 0 0 0
-0.01613529 -0.05646119 0.06095116 0 0 0 0
0.03974959 -0.07232624 0.03643189 0 0 0 0
-0.04994189 -0.05883560 0.03012944 0 0 0 0
0.05060282 -0.05390632 -0.00965897 0 0 0 0
0.01128008 -0.05187076 -0.05688571 0 0 0 0
0.03387775 -0.00637304 -0.06069800 0 0 0 0
0.01258806 -0.06230842 -0.03725834 0 0 0 0
-0.03614528 -0.02632132 -0.06069097 0 0 0 0
-0.02676617 -0.07967880 0.00895498 0 0 0 0
-0.03626573 -0.07623979 0.02932253 0 0 0 0
-0.04793241 0.02386525 0.03952854 0 0 0 0
0.05919708 -0.01331776 -0.03680767 0 0 0 0
-0.05308964 -0.05511463 0.00922614 0 0 0 0
0.05315260 0.02357106 0.02942125 0 0 0 0
-0.05161031 0.07341871 -0.00785959 0 0 0 0
0.04180584 -0.06434281 -0.01012130 0 0 0 0
0.05628297 0.01391404 -0.04076847 0 0 0 0
-0.05160758 0.08004135 0.00743440 0 0 0 0
0.00392976 -0.05641590 0.06207182 0 0 0 0
0.04596119 0.03467755 -0.04164612 0 0 0 0
0.04415045 0.01389439 -0.06053518 0 0 0 0
0.05023230 0.03138722 -0.03802605 0 0 0 0
0.02110239 -0.08202533 0.01130762 0 0 0 0
0.03241959 0.08036813 -0.03870558 0 0 0 0
-0.00072749 0.00871457 0.06430794 0 0 0 0
0.02387766 0.05319044 -0.05087344 0 0 0 0
0.05957477 -0.00587378 -0.03779046 0 0 0 0
0.03380178 -0.06645785 0.04944501 0 0 0 0
-0.04641628 0.08082312 0.00954503 0 0 0 0
0.03356187 0.07356665 -0.03985285 0 0 0 0
-0.05393737 0.04361075 0.01926522 0 0 0 0
0.00386167 -0.02634170 0.06652436 0 0 0 0
0.03938935 0.06110561 -0.03636333 0 0 0 0
0.02435875 -0.01613201 0.06312789 0 0 0 0
-0.00709828 -0.08088174 0.04368740 0 0 0 0
0.06086872 -0.02604650 0.01959264 0 0 0 0
0.04036124 0.05295274 -0.03745876 0 0 0 0
0.04238412 0.04292494 -0.04004728 0 0 0 0
0.05926507 0.03062019 0.00571055 0 0 0 0
0.05311832 0.03361734 -0.03074681 0 0 0 0
0.04853773 0.03780967 -0.03520074 0 0 0 0
-0.00601601 0.08067632 0.04875902 0 0 0 0
0.06049944 0.01320638 -0.03026619 0 0 0 0
-0.05231581 0.07365103 -0.00069204 0 0 0 0
0.04604654 -0.06723849 0.01925138 0 0 0 0
0.05818260 0.01675918 -0.03392800 0 0 0 0
0.06057756 0.00352072 0.01914191 0 0 0 0
0.02936216 -0.05192806 -0.04611575 0 0 0 0
0.02572704 -0.06028342 -0.03394557 0 0 0 0
0.03402014 0.06369986 -0.04072080 0 0 0 0
-0.06195132 -0.02392275 -0.01891381 0 0 0 0
-0.05991882 -0.03793119 -0.00114608 0 0 0 0
-0.04553573 0.06376275 0.02935747 0 0 0 0
0.05954022 0.02063786 -0.02751490 0 0 0 0
0.05839824 -0.01946662 -0.03439498 0 0 0 0
0.06179177 0.00368653 -0.03086693 0 0 0 0
-0.02613996 0.01371612 -0.06069789 0 0 0 0
0.06190886 -0.00618677 -0.03084215 0 0 0 0
-0.05737947 -0.02662104 -0.03077758 0 0 0 0
-0.04749026 0.07364923 -0.02071472 0 0 0 0
-0.05809298 -0.02627456 0.02944709 0 0 0 0
-0.01576572 0.04326131 0.05607801 0 0 0 0
0.05965811 -0.02369117 -0.02807315 0 0 0 0
0.05668191 0.02432815 -0.03124288 0 0 0 0
0.00380830 0.03355674 0.05971313 0 0 0 0
0.05904753 -0.04169710 0.00154114 0 0 0 0
-0.02626401 0.08089537 0.02958267 0 0 0 0
0.04292341 0.06361398 -0.03072621 0 0 0 0
-0.00620958 -0.07667797 0.04934715 0 0 0 0
0.05927132 -0.02554397 0.02599259 0 0 0 0
0.00395679 0.08089536 -0.04096048 0 0 0 0
0.04145663 -0.05411603 -0.02948914 0 0 0 0
-0.05131165 -0.03419103 0.04474458 0 0 0 0
0.03987345 -0.05277812 0.05496252 0 0 0 0
0.00395124 0.08089539 0.02957632 0 0 0 0
-0.04456387 -0.06525689 -0.00045356 0 0 0 0
0.02137098 -0.01033377 0.06451741 0 0 0 0
-0.02388941 -0.08239124 0.01954227 0 0 0 0
0.02330583 -0.06388587 -0.02976530 0 0 0 0
-0.02562667 0.04311442 -0.05900835 0 0 0 0
0.04718554 0.07391272 -0.02154193 0 0 0 0
0.03859750 0.06720582 -0.03537945 0 0 0 0
0.05669449 -0.04625452 0.01910161 0 0 0 0
0.06456186 -0.00618259 -0.02075762 0 0 0 0
-0.04760477 -0.05703609 -0.01110136 0 0 0 0
0.05945836 -0.03262077 -0.01826771 0 0 0 0
-0.03681924 0.02399037 0.05130715 0 0 0 0
-0.05990083 0.02489842 -0.02184076 0 0 0 0
0.01365097 0.08046385 -0.04833308 0 0 0 0
0.04971958 0.06293652 -0.01798804 0 0 0 0
-0.02174037 -0.03548668 0.06434295 0 0 0 0
0.05066712 0.05311488 -0.02008554 0 0 0 0
0.04965652 -0.05205623 -0.01736068 0 0 0 0
0.02384517 -0.03635056 -0.06069797 0 0 0 0
0.03403217 -0.03651562 -0.05957985 0 0 0 0
-0.02841445 -0.08024380 0.02965168 0 0 0 0
0.02103330 -0.07202460 -0.01703752 0 0 0 0
-0.02622221 -0.01614748 0.06295645 0 0 0 0
0.04389054 0.02325613 -0.05937201 0 0 0 0
-0.02677813 -0.04827212 -0.05147419 0 0 0 0
-0.04299257 -0.06339243 -0.00965952 0 0 0 0
-0.02360401 -0.08227364 0.02894545 0 0 0 0
0.02455816 0.04407598 0.05218333 0 0 0 0
0.05968300 0.03120076 -0.01036482 0 0 0 0
-0.00609577 0.07358263 0.05250552 0 0 0 0
-0.01247000 0.00075527 0.06455854 0 0 0 0
0.06171314 0.02362135 -0.01096164 0 0 0 0
0.06546430 0.00368677 -0.01084400 0 0 0 0
-0.04411199 0.01334426 0.04797892 0 0 0 0
0.05716094 -0.04688609 0.00904401 0 0 0 0
0.06585807 -0.00611803 -0.01083140 0 0 0 0
0.06501511 -0.01636081 -0.01087581 0 0 0 0
0.03069813 0.05197700 -0.04722470 0 0 0 0
0.03118424 -0.07248112 -0.00813864 0 0 0 0
0.02352497 -0.07403801 -0.01028153 0 0 0 0
0.05169370 0.06366332 -0.01071200 0 0 0 0
-0.02613903 -0.03637390 0.06300155 0 0 0 0
0.05329855 0.05368468 -0.01044233 0 0 0 0
0.05579155 0.04388080 -0.01050584 0 0 0 0
0.04079082 -0.06403014 0.04677446 0 0 0 0
0.05803264 0.01462492 0.02165429 0 0 0 0
-0.05371470 -0.03587729 -0.03020684 0 0 0 0
-0.04834658 0.06360231 -0.02081161 0 0 0 0
-0.05679756 -0.03645462 0.02924960 0 0 0 0
-0.04654801 0.08075023 -0.01082347 0 0 0 0
0.03460521 -0.06883775 -0.01151883 0 0 0 0
-0.02552450 0.07341428 0.04667556 0 0 0 0
0.04957714 -0.06215127 0.01048082 0 0 0 0
-0.04512525 0.08061916 -0.02030409 0 0 0 0
0.03756391 -0.07040046 -0.00358507 0 0 0 0
0.00386256 0.04367482 -0.06069788 0 0 0 0
0.03421304 -0.07760059 0.01924233 0 0 0 0
0.02404900 -0.07771190 -0.00075964 0 0 0 0
0.05310033 0.06369587 -0.00068244 0 0 0 0
0.04748465 0.06414980 -0.02271234 0 0 0 0
0.05648973 0.00392245 0.02948657 0 0 0 0
-0.04287103 0.05289705 0.03664967 0 0 0 0
0.02052618 0.04128955 0.05492282 0 0 0 0
0.05680439 0.03405359 -0.02095138 0 0 0 0
0.05971136 0.03147035 -0.00140977 0 0 0 0
-0.05283326 0.06375814 0.00919860 0 0 0 0
-0.03257875 -0.06215877 -0.02709633 0 0 0 0
0.05158903 -0.05576303 -0.00046630 0 0 0 0
-0.00611998 0.08089534 0.01951127 0 0 0 0
0.06289040 0.01365596 -0.02089915 0 0 0 0
0.06183062 0.01361890 0.00963863 0 0 0 0
-0.06031803 -0.02680734 0.02129780 0 0 0 0
0.04972531 -0.06227081 0.01902738 0 0 0 0
0.05845390 -0.03011794 -0.02418277 0 0 0 0
0.03345230 -0.07400189 -0.00026227 0 0 0 0
0.05451613 0.05369138 -0.00067964 0 0 0 0
0.04130841 -0.01642565 0.05644784 0 0 0 0
0.06157139 0.02348997 -0.00084716 0 0 0 0
-0.00612898 -0.05642963 0.06202690 0 0 0 0
0.04547727 -0.00613478 0.05006484 0 0 0 0
0.06564684 -0.00612013 -0.00065322 0 0 0 0
0.06363682 -0.02647746 -0.00072361 0 0 0 0
0.05259205 0.06378498 0.00926322 0 0 0 0
0.03368334 -0.07646990 0.00932467 0 0 0 0
0.02500210 -0.08004142 0.00869581 0 0 0 0
0.05018900 0.08036269 -0.01025125 0 0 0 0
-0.03925058 -0.06985538 -0.00212528 0 0 0 0
-0.05011624 0.03463552 0.03229344 0 0 0 0
0.01375252 0.08064230 0.04794763 0 0 0 0
-0.05164100 -0.05234183 0.03572222 0 0 0 0
0.02392692 -0.04631419 0.06180731 0 0 0 0
-0.01610536 0.02373021 0.05997913 0 0 0 0
0.04816811 0.00516054 0.04326233 0 0 0 0
-0.03427803 -0.05349865 -0.03871762 0 0 0 0
-0.06153592 -0.03299293 0.00859930 0 0 0 0
0.04981940 0.02285073 0.03605063 0 0 0 0
-0.05293286 -0.05535903 0.01911225 0 0 0 0
0.03977994 0.00135562 0.05502456 0 0 0 0
0.05045636 0.08047156 0.00912096 0 0 0 0
0.02401086 0.05369458 0.05017664 0 0 0 0
0.06336682 -0.01615658 -0.02089179 0 0 0 0
-0.04139828 -0.00059061 0.05460332 0 0 0 0
0.01358908 -0.06584331 0.05693077 0 0 0 0
0.05583831 0.04364541 0.00911904 0 0 0 0
0.05767073 0.03424064 0.00941982 0 0 0 0
0.05915372 -0.04195214 0.00875234 0 0 0 0
0.03550665 -0.04916264 -0.04294921 0 0 0 0
-0.00615299 0.01367775 -0.06069793 0 0 0 0
0.01430452 -0.05880795 -0.04175999 0 0 0 0
0.03646004 -0.05910489 0.05308544 0 0 0 0
0.05254490 -0.05612678 0.00901743 0 0 0 0
-0.04516057 0.05360265 -0.03074873 0 0 0 0
-0.05789677 -0.00625230 0.02951668 0 0 0 0
0.01391102 0.06372978 0.05203024 0 0 0 0
0.00404159 -0.04661778 -0.06060144 0 0 0 0
0.04008027 0.03241702 0.04566375 0 0 0 0
0.01246491 -0.00707990 0.06497406 0 0 0 0
-0.06082666 -0.03024806 -0.01482520 0 0 0 0
0.04930430 -0.06202304 0.02693745 0 0 0 0
-0.02613757 -0.05645502 0.05875483 0 0 0 0
0.05897362 -0.04160130 0.01470593 0 0 0 0
0.05340459 -0.03639687 -0.03068286 0 0 0 0
0.06322978 0.00369839 0.00962034 0 0 0 0
0.03830233 0.07461537 -0.03510789 0 0 0 0
0.05715771 -0.00612856 0.03017621 0 0 0 0
-0.01872240 -0.00499709 0.06382970 0 0 0 0
0.06402676 -0.00613859 0.00951725 0 0 0 0
0.01400971 0.04378619 -0.06055549 0 0 0 0
0.05342581 0.04342802 -0.02069372 0 0 0 0
0.02390519 0.02361879 0.05720261 0 0 0 0
0.03961793 0.07242920 0.03510546 0 0 0 0
0.04832942 -0.06061641 0.03253843 0 0 0 0
0.04906787 0.08002654 -0.01663381 0 0 0 0
-0.06164873 -0.03340744 -0.00033766 0 0 0 0
-0.05217183 -0.05424625 0.02855965 0 0 0 0
0.00377445 -0.07316615 -0.01949496 0 0 0 0
0.04395998 0.00360287 0.04950498 0 0 0 0
0.02258365 -0.08256922 0.01964712 0 0 0 0
0.06074974 -0.03609597 -0.00076931 0 0 0 0
0.03344658 -0.07475002 0.03904352 0 0 0 0
0.02737489 -0.08069672 0.01918328 0 0 0 0
0.04445951 0.03376867 0.03961934 0 0 0 0
-0.04325540 0.07351594 -0.02862810 0 0 0 0
0.05352848 -0.02638187 0.03917018 0 0 0 0
0.04979869 0.07325443 0.01709752 0 0 0 0
0.01384269 -0.02636046 0.06555901 0 0 0 0
0.04777123 0.07421948 0.02166296 0 0 0 0
-0.05091456 0.07611939 0.01313091 0 0 0 0
0.05162463 0.05364294 0.01933693 0 0 0 0
-0.06007963 0.00400497 0.02124787 0 0 0 0
-0.01611652 0.06367863 -0.05057905 0 0 0 0
0.01367136 -0.05406779 -0.05004089 0 0 0 0
-0.02618710 -0.03641624 -0.06067927 0 0 0 0
-0.02620499 -0.07715360 -0.00078655 0 0 0 0
-0.03480413 -0.07351087 0.00004440 0 0 0 0
0.06071068 -0.01588881 -0.03051683 0 0 0 0
0.04845480 -0.04062670 -0.03469142 0 0 0 0
-0.03634919 -0.02636756 0.06025028 0 0 0 0
0.03316894 0.08052278 0.03825363 0 0 0 0
-0.04528155 0.00346119 0.04915512 0 0 0 0
0.05343542 0.04362784 0.01927586 0 0 0 0
0.03421492 0.08086045 -0.03090621 0 0 0 0
0.05761192 0.00415289 -0.04228236 0 0 0 0
0.06436101 0.00372686 -0.02075243 0 0 0 0
0.05829149 -0.03930758 0.02173999 0 0 0 0
0.04563986 -0.06676304 0.02940995 0 0 0 0
0.03318438 -0.05574725 0.05631650 0 0 0 0
0.05261290 -0.05612344 0.01923916 0 0 0 0
0.05499396 0.01372642 0.02933230 0 0 0 0
0.05660166 -0.01671165 -0.04109676 0 0 0 0
0.05063321 -0.03450322 -0.03916431 0 0 0 0
0.05053094 0.04229523 -0.02882779 0 0 0 0
-0.00594666 -0.08323079 0.03892593 0 0 0 0
0.06138051 -0.01611312 0.01957970 0 0 0 0
0.02423403 -0.07855648 0.03976324 0 0 0 0
0.05974771 -0.03539974 0.01870764 0 0 0 0
0.05923473 -0.00705356 0.02565433 0 0 0 0
-0.04075532 0.07589763 0.03381777 0 0 0 0
0.05671762 0.04361426 -0.00074317 0 0 0 0
-0.01608023 -0.01629171 -0.06069799 0 0 0 0
0.03098213 -0.07249212 0.04560546 0 0 0 0
0.02330056 -0.07410683 0.04747171 0 0 0 0
-0.06219067 0.02268652 -0.01086748 0 0 0 0
0.05941759 -0.01630156 0.02617981 0 0 0 0
0.05042528 0.06328072 0.01841046 0 0 0 0
0.03415942 0.08089531 0.01950569 0 0 0 0
-0.05616869 0.04374260 -0.01044288 0 0 0 0
0.02215869 -0.08249442 0.02889206 0 0 0 0
0.06524837 -0.01632083 -0.00065529 0 0 0 0
0.03397200 -0.04656867 0.05869817 0 0 0 0
0.05044989 0.04297722 0.02727501 0 0 0 0
0.04081720 -0.07306047 0.02893770 0 0 0 0
0.05746544 -0.01623301 0.03074458 0 0 0 0
0.03290478 -0.05391858 -0.03919471 0 0 0 0
0.02399053 -0.05673496 -0.04077591 0 0 0 0
0.05900246 0.00106336 0.02457142 0 0 0 0
0.02815491 0.02820881 0.05414839 0 0 0 0
0.04341208 0.07363503 0.02920943 0 0 0 0
0.05168273 0.07361308 0.00911114 0 0 0 0
0.02685302 -0.08049734 0.03003771 0 0 0 0
0.03413771 -0.07727033 0.02928877 0 0 0 0
0.03391794 -0.02632928 -0.06069792 0 0 0 0
0.04912808 0.04998219 -0.02639021 0 0 0 0
0.06017032 -0.03460579 -0.01055752 0 0 0 0
-0.04742027 0.05371428 0.02957294 0 0 0 0
0.04820793 0.03582857 0.03289618 0 0 0 0
0.05157001 0.03337807 0.02886843 0 0 0 0
0.01383597 -0.04707285 -0.05991733 0 0 0 0
-0.04917706 0.07370845 0.01945048 0 0 0 0
-0.05419808 -0.00634901 -0.05064104 0 0 0 0
0.06287012 -0.02646977 0.00963493 0 0 0 0
0.00395362 0.08089532 -0.00063325 0 0 0 0
-0.04407860 0.04321868 0.03807740 0 0 0 0
0.05736451 -0.02651632 0.03060415 0 0 0 0
0.05239774 -0.01644839 -0.05069878 0 0 0 0
0.04852415 0.05676920 0.02375044 0 0 0 0
0.01118734 -0.04354686 0.06467376 0 0 0 0
-0.02615203 -0.05609250 -0.04061041 0 0 0 0
0.05665709 -0.03658016 0.02929337 0 0 0 0
-0.04354652 -0.04452744 -0.03939326 0 0 0 0
0.04314198 -0.06633665 0.03924524 0 0 0 0
-0.05190011 0.07336491 0.00871105 0 0 0 0
0.04524956 -0.06703565 0.00916684 0 0 0 0
0.05064490 0.01335383 0.03752189 0 0 0 0
0.05986639 0.01297676 0.01753650 0 0 0 0
0.05853707 -0.02858260 0.02343694 0 0 0 0
-0.04886976 0.04409899 0.03061756 0 0 0 0
-0.00459306 0.06035986 0.05464958 0 0 0 0
0.04693825 0.04457865 -0.03293482 0 0 0 0
0.03400119 0.03362690 0.04968847 0 0 0 0
-0.05698266 0.00386692 0.02940054 0 0 0 0
0.05133058 -0.05614145 0.02918684 0 0 0 0
-0.05052979 0.05533047 0.02286899 0 0 0 0
0.01390650 0.02371222 0.06013642 0 0 0 0
0.04926032 0.03040730 0.03472488 0 0 0 0
0.06062923 -0.03633463 0.00937008 0 0 0 0
-0.02014074 -0.08108991 0.00548737 0 0 0 0
0.02425229 0.08084124 0.03948105 0 0 0 0
0.01455217 -0.07982781 -0.00146712 0 0 0 0
-0.05022186 -0.01817220 -0.05386510 0 0 0 0
0.01557202 0.05460772 0.05330123 0 0 0 0
0.05662631 -0.04646895 -0.00088081 0 0 0 0
0.01520866 -0.08024318 0.04208200 0 0 0 0
0.05764373 -0.00652930 -0.04254278 0 0 0 0
0.04937257 -0.04376880 0.04524584 0 0 0 0
0.00395520 0.08089535 -0.02079003 0 0 0 0
-0.05590560 0.03365284 0.01921976 0 0 0 0
0.04898760 0.01907619 -0.05705345 0 0 0 0
0.03619048 0.05416917 0.04208561 0 0 0 0
-0.05353613 0.05369078 -0.01047697 0 0 0 0
0.02402834 0.06366204 0.04809066 0 0 0 0
-0.03893115 0.03632534 -0.05179325 0 0 0 0
-0.01796245 -0.07018139 0.05352397 0 0 0 0
0.04737544 0.01413797 0.04222222 0 0 0 0
0.05159634 0.00358412 0.03881716 0 0 0 0
0.02358753 0.07354039 0.04693906 0 0 0 0
-0.05063433 0.06564058 -0.01409248 0 0 0 0
-0.05198788 -0.03300397 -0.03786985 0 0 0 0
-0.04583665 0.08065711 0.01900497 0 0 0 0
0.03721891 -0.07034736 0.04279769 0 0 0 0
-0.01665520 -0.07967441 -0.00128327 0 0 0 0
0.02269699 0.08046992 0.04601719 0 0 0 0
0.05541931 0.03362627 0.01938389 0 0 0 0
-0.03677631 0.06397025 0.04005449 0 0 0 0
0.05901163 -0.03275380 0.02469390 0 0 0 0
0.04823854 0.05616731 -0.02393702 0 0 0 0
-0.00614520 0.04360487 0.05770855 0 0 0 0
-0.05996903 -0.02735192 -0.02198638 0 0 0 0
0.05085812 0.07362590 -0.01064268 0 0 0 0
0.05134725 -0.04616856 0.03915354 0 0 0 0
0.02676904 0.03490267 0.05322487 0 0 0 0
0.04212325 0.08048900 0.02852417 0 0 0 0
0.04613368 -0.01613147 0.05087167 0 0 0 0
0.03045271 -0.06228956 0.05486949 0 0 0 0
0.02294702 -0.06397577 0.05593527 0 0 0 0
0.05073788 0.08057410 -0.00064602 0 0 0 0
-0.02559543 -0.07363797 -0.01006844 0 0 0 0
0.04618135 0.05396522 0.03014297 0 0 0 0
-0.02753786 -0.06001248 -0.03353376 0 0 0 0
-0.04190240 -0.07236675 0.02825725 0 0 0 0
-0.01591697 -0.01647383 0.06522622 0 0 0 0
-0.02627700 0.08089533 -0.00063338 0 0 0 0
0.05282032 -0.03626262 0.03929446 0 0 0 0
0.04413367 0.08076087 0.01956769 0 0 0 0
0.04961286 0.05159474 0.02573986 0 0 0 0
0.04268117 0.01342436 0.04852504 0 0 0 0
0.00368724 -0.08232033 0.00167558 0 0 0 0
-0.04295389 0.02293181 0.04638730 0 0 0 0
0.00391302 0.07369237 0.05251772 0 0 0 0
-0.00675464 0.06490216 0.05360917 0 0 0 0
-0.03209904 0.05048219 -0.04656855 0 0 0 0
0.04649756 -0.03800424 -0.04220659 0 0 0 0
-0.00572841 -0.08221594 0.00165960 0 0 0 0
0.01401876 0.07363044 0.05061824 0 0 0 0
-0.05659646 -0.04622778 0.01911331 0 0 0 0
0.04081320 -0.00679656 0.05552205 0 0 0 0
0.03771425 0.04539831 0.04310638 0 0 0 0
-0.01184900 -0.07142037 0.05451672 0 0 0 0
0.02410435 0.08089533 -0.01070840 0 0 0 0
-0.02599805 0.02355246 0.05694641 0 0 0 0
-0.03021820 0.07491048 0.04375985 0 0 0 0
0.05223197 0.07366555 -0.00068379 0 0 0 0
0.05021776 -0.02631002 0.04610830 0 0 0 0
-0.00601599 -0.06645109 0.05760808 0 0 0 0
0.06503916 0.00369154 -0.00065383 0 0 0 0
0.05826581 0.00561275 0.02297994 0 0 0 0
0.04125984 0.05325346 0.03728672 0 0 0 0
-0.04504845 -0.05557523 -0.02025038 0 0 0 0
-0.06148789 0.02065658 0.00664203 0 0 0 0
0.03670482 0.01475992 0.05301969 0 0 0 0
0.00344479 -0.05210758 -0.05801104 0 0 0 0
0.04154294 0.02324529 0.04694257 0 0 0 0
-0.00615282 0.03366469 0.05961411 0 0 0 0
0.04634453 -0.05848155 -0.01162746 0 0 0 0
-0.05933895 -0.03619517 0.01937601 0 0 0 0
0.02777709 0.06534113 -0.04503009 0 0 0 0
-0.03304488 0.05291789 0.04594857 0 0 0 0
0.06020490 0.02319229 0.00866153 0 0 0 0
-0.06095945 0.01842512 -0.02497863 0 0 0 0
-0.01567228 -0.06573302 0.05689730 0 0 0 0
0.04914453 -0.00009188 0.04477825 0 0 0 0
-0.01612247 -0.02631994 -0.06069793 0 0 0 0
0.02472279 -0.06849258 0.05212521 0 0 0 0
-0.02611999 0.05365885 0.04990084 0 0 0 0
0.05359335 -0.02641284 -0.04062030 0 0 0 0
-0.02773681 0.04624268 -0.05320039 0 0 0 0
0.03937138 0.07919601 0.03466826 0 0 0 0
0.02254233 0.03305114 0.05577856 0 0 0 0
-0.04285686 -0.05325420 -0.02859441 0 0 0 0
-0.06194645 0.02243599 -0.00106061 0 0 0 0
0.01351166 -0.03608295 0.06506018 0 0 0 0
0.04811322 0.06465909 0.02278287 0 0 0 0
0.02395979 0.00373149 0.06096789 0 0 0 0
0.01378661 0.04345709 0.05619439 0 0 0 0
0.05410842 0.05374349 0.00910386 0 0 0 0
0.02401402 -0.00631282 0.06233311 0 0 0 0
0.02152022 0.07984377 -0.04688127 0 0 0 0
0.03052357 0.02197797 0.05509245 0 0 0 0
-0.02215431 0.04104530 0.05481857 0 0 0 0
0.04555381 -0.04648972 0.04977395 0 0 0 0
0.04894702 -0.02143775 -0.05611266 0 0 0 0
0.00395599 0.08089537 -0.03087354 0 0 0 0
-0.05904002 0.03358746 -0.01090135 0 0 0 0
0.03948137 -0.05219403 -0.03641654 0 0 0 0
-0.02590839 0.05300371 -0.04971617 0 0 0 0
0.04163483 -0.02632638 0.05677002 0 0 0 0
-0.04066156 0.03725776 0.04389042 0 0 0 0
-0.00611819 0.08089538 0.03928285 0 0 0 0
0.06353492 0.01363473 -0.00069385 0 0 0 0
-0.04665798 0.01368592 -0.05978217 0 0 0 0
-0.06227178 0.01315991 0.00912059 0 0 0 0
0.04641803 -0.03653094 0.05074794 0 0 0 0
-0.04784943 -0.03641773 0.04957324 0 0 0 0
0.02005853 -0.02600760 0.06455439 0 0 0 0
0.05854731 -0.04029342 -0.00423641 0 0 0 0
-0.02640560 0.08080916 0.03948911 0 0 0 0
0.04038367 0.06274936 0.03587837 0 0 0 0
0.02401785 -0.05639790 0.05894689 0 0 0 0
-0.05091583 -0.03954886 0.04360498 0 0 0 0
0.04396800 0.08069645 -0.02054355 0 0 0 0
-0.04806580 -0.02631314 0.04994342 0 0 0 0
0.00399401 -0.07026456 -0.02404836 0 0 0 0
0.01980695 -0.03425016 0.06436060 0 0 0 0
0.04098970 -0.04572570 0.05584930 0 0 0 0
-0.03625975 0.03356215 0.04890309 0 0 0 0
0.04619914 0.02415322 0.04071276 0 0 0 0
-0.05042279 0.01622255 -0.05390958 0 0 0 0
-0.06167930 -0.02498111 0.01686519 0 0 0 0
-0.05442083 -0.04636034 0.02937242 0 0 0 0
0.05468505 -0.04659667 -0.01069522 0 0 0 0
-0.01619606 0.08089535 0.00944137 0 0 0 0
0.02395246 0.01366552 0.05922534 0 0 0 0
0.04025021 -0.07269067 0.01027047 0 0 0 0
-0.03479685 0.04262825 -0.04969843 0 0 0 0
-0.06278643 -0.02634829 0.00958735 0 0 0 0
-0.05219153 -0.04556086 0.03772491 0 0 0 0
0.05261865 -0.00630398 0.03930650 0 0 0 0
0.05001622 -0.01671001 0.04589316 0 0 0 0
0.01168981 0.05219068 0.05503447 0 0 0 0
0.00389572 0.01363721 -0.06069794 0 0 0 0
0.05837873 0.02739939 -0.02396799 0 0 0 0
0.00386292 -0.02635259 -0.06069792 0 0 0 0
-0.03275140 0.03998379 -0.05780484 0 0 0 0
-0.06133928 0.01035871 0.01584355 0 0 0 0
0.03389335 -0.01632131 0.06002072 0 0 0 0
0.04472030 0.06378832 0.02934670 0 0 0 0
-0.03044497 0.05728947 -0.04521234 0 0 0 0
-0.00516487 -0.07196257 0.05453945 0 0 0 0
0.04647664 -0.02623625 0.05109571 0 0 0 0
-0.04169803 -0.04173785 -0.04635757 0 0 0 0
0.01395220 0.03366321 0.05816862 0 0 0 0
0.03401830 -0.00636345 0.05877201 0 0 0 0
0.04782246 -0.06019623 -0.00301685 0 0 0 0
0.05921461 0.02061362 0.01549193 0 0 0 0
0.03336666 0.04326877 0.04751046 0 0 0 0
0.03746137 0.03736036 -0.05312747 0 0 0 0
-0.05834191 -0.01621890 0.02954042 0 0 0 0
0.00391719 -0.03640143 -0.06069794 0 0 0 0
0.03922617 0.03991853 0.04459152 0 0 0 0
0.04993093 -0.05439884 0.03705397 0 0 0 0
-0.05170050 -0.04232621 -0.02727766 0 0 0 0
-0.02869338 0.03464903 0.05310727 0 0 0 0
0.04158686 -0.03618495 0.05666900 0 0 0 0
0.03946328 -0.07190207 0.00243677 0 0 0 0
-0.04671739 -0.04661038 -0.03095122 0 0 0 0
0.03376192 0.00352494 0.05718432 0 0 0 0
0.05436325 0.00373534 -0.05062188 0 0 0 0
-0.06453117 -0.00614162 -0.02072582 0 0 0 0
-0.04629127 -0.04631803 0.04954928 0 0 0 0
-0.04935658 -0.05890278 -0.00120662 0 0 0 0
0.05341720 -0.01642827 0.03916947 0 0 0 0
0.03455221 -0.05803480 -0.03135508 0 0 0 0
0.04449239 -0.01666139 -0.06030449 0 0 0 0
0.05660123 -0.03704599 -0.02096734 0 0 0 0
0.03401400 -0.02637312 0.06060909 0 0 0 0
0.01444588 0.05461335 -0.05373112 0 0 0 0
0.03391742 -0.03642125 0.06027776 0 0 0 0