ply
format ascii 1.0
comment https://github.com/mikedh/trimesh
element vertex 1139
property float x
property float y
property float z
property uchar red
property uchar green
property uchar blue
property uchar alpha
end_header
-0.06292853 0.16111018 0.02625044 0 0 0 0
-0.06296899 0.17065337 0.02667623 0 0 0 0
-0.03812076 -0.05645987 0.02196416 0 0 0 0
0.01176993 0.16148475 0.06992777 0 0 0 0
0.00187190 0.18176822 0.06812347 0 0 0 0
-0.04268880 -0.05307909 0.02293964 0 0 0 0
-0.03439857 -0.02423607 0.09736911 0 0 0 0
-0.05415707 0.04905535 0.02326654 0 0 0 0
-0.05145862 0.05345028 0.02099964 0 0 0 0
-0.04872377 0.06165776 0.02218410 0 0 0 0
-0.06049702 0.13166896 0.02192817 0 0 0 0
-0.04761577 -0.04831519 0.02208430 0 0 0 0
-0.05566883 -0.03763832 0.02188134 0 0 0 0
-0.06422954 -0.01777108 0.02180501 0 0 0 0
-0.06666140 0.00148920 0.02224126 0 0 0 0
-0.05374475 -0.04364742 -0.00038990 0 0 0 0
-0.05297838 0.05580864 0.02806290 0 0 0 0
-0.05279524 0.08862118 0.02774266 0 0 0 0
-0.05212526 0.08079302 0.02941266 0 0 0 0
-0.06092573 0.15158333 0.03183899 0 0 0 0
-0.02816406 -0.06090105 0.03210998 0 0 0 0
-0.05350112 0.07165971 0.03479994 0 0 0 0
-0.05452861 0.09175289 0.03214282 0 0 0 0
-0.05599568 0.10166265 0.03199232 0 0 0 0
-0.05911541 0.12154107 0.03194264 0 0 0 0
-0.06356831 -0.01580545 0.03008676 0 0 0 0
-0.06277020 0.02513003 0.03270069 0 0 0 0
-0.06115236 0.03150979 0.03215728 0 0 0 0
0.05680817 0.17123960 0.03695676 0 0 0 0
-0.06304376 -0.01281974 0.03665544 0 0 0 0
-0.06456223 -0.00844552 0.03197182 0 0 0 0
0.04200631 0.18454631 -0.02792203 0 0 0 0
-0.06531619 0.00138117 0.03215777 0 0 0 0
-0.06489001 0.01147759 0.03227974 0 0 0 0
-0.06328182 0.01815289 0.03860922 0 0 0 0
-0.06353297 -0.00655950 0.03915024 0 0 0 0
-0.05222857 0.16218019 0.04601265 0 0 0 0
-0.05180041 0.17189288 0.04560587 0 0 0 0
0.00172532 0.13149633 0.08037972 0 0 0 0
-0.05698651 0.14169975 0.04225405 0 0 0 0
0.03192159 -0.01864924 -0.00038888 0 0 0 0
-0.05286674 0.15362650 0.04662690 0 0 0 0
-0.02827708 -0.05951671 0.04208679 0 0 0 0
-0.05673283 0.10149758 0.04192343 0 0 0 0
-0.05747277 0.11160216 0.04214826 0 0 0 0
-0.05796767 0.12169737 0.04226235 0 0 0 0
-0.03653745 -0.05556377 0.04179497 0 0 0 0
0.04177434 0.18454655 -0.01800980 0 0 0 0
-0.06380311 0.00191560 0.04088710 0 0 0 0
-0.06369111 0.01139342 0.04062416 0 0 0 0
-0.05494474 0.07153866 0.04201833 0 0 0 0
-0.05590527 0.09147095 0.04204692 0 0 0 0
-0.02816219 0.18454680 -0.00811468 0 0 0 0
-0.04152340 -0.05214085 0.04271816 0 0 0 0
-0.04619091 -0.04738495 0.04181510 0 0 0 0
-0.05869025 0.04155001 0.04201715 0 0 0 0
0.00185398 0.03117139 -0.00038707 0 0 0 0
-0.05426816 -0.03553804 0.04122840 0 0 0 0
-0.05514807 0.18210045 0.04009145 0 0 0 0
-0.06075940 0.03142956 0.04219216 0 0 0 0
-0.05383198 0.14057927 0.04824590 0 0 0 0
-0.06276426 0.00101723 0.04565350 0 0 0 0
-0.06278244 0.01223965 0.04540026 0 0 0 0
-0.04691922 0.17138980 0.05098616 0 0 0 0
-0.03827627 0.18401895 0.05232444 0 0 0 0
-0.04147869 0.17197846 0.05586403 0 0 0 0
-0.01776563 0.18195930 -0.06477450 0 0 0 0
-0.04304538 0.15623313 0.05705298 0 0 0 0
-0.03511835 -0.05444515 0.05102154 0 0 0 0
-0.03644355 0.17198291 -0.05541817 0 0 0 0
-0.05500598 0.12117841 0.05108571 0 0 0 0
-0.04987717 0.14181554 0.05314950 0 0 0 0
-0.06292807 0.02615324 0.02298438 0 0 0 0
-0.05224442 0.12297758 0.05574169 0 0 0 0
-0.05818385 0.18445434 0.02227767 0 0 0 0
-0.06123149 0.03155071 0.02212567 0 0 0 0
-0.05114530 0.13208249 0.05437391 0 0 0 0
-0.04377164 0.14905986 0.05783575 0 0 0 0
-0.02810989 -0.05740665 0.05212491 0 0 0 0
0.00199840 0.09228876 0.09543906 0 0 0 0
-0.05560319 0.10160366 0.05207543 0 0 0 0
0.04737256 0.13546017 -0.02349292 0 0 0 0
-0.05533397 0.11144570 0.05208257 0 0 0 0
0.05167881 -0.00863038 -0.00038863 0 0 0 0
-0.05697598 0.05168847 0.05211797 0 0 0 0
0.00208100 0.05132263 0.10901874 0 0 0 0
-0.02891234 0.10211517 0.08488689 0 0 0 0
0.05734626 -0.02456158 0.04929833 0 0 0 0
-0.05611257 0.06130331 0.05210122 0 0 0 0
0.04789686 0.12986661 0.05830536 0 0 0 0
-0.05342488 0.10821241 0.05789638 0 0 0 0
-0.02792986 0.03121810 -0.00038716 0 0 0 0
0.00180170 0.15155172 0.07360337 0 0 0 0
-0.02760354 0.18306358 0.06105687 0 0 0 0
0.05607509 0.13193309 0.04512704 0 0 0 0
0.03968762 -0.05541799 0.02198865 0 0 0 0
-0.04985928 -0.03876179 0.05221109 0 0 0 0
-0.05962978 0.03163160 0.05216219 0 0 0 0
-0.05827298 0.04141974 0.05212141 0 0 0 0
0.06627435 0.17102997 0.01282641 0 0 0 0
0.06220165 0.14165322 0.02192268 0 0 0 0
-0.05520478 -0.02809561 0.05172615 0 0 0 0
0.04303795 0.17105587 -0.04922200 0 0 0 0
-0.05817286 -0.01855498 0.05210896 0 0 0 0
-0.06122625 0.00156228 0.05228998 0 0 0 0
-0.05369976 0.10081018 0.05876426 0 0 0 0
0.05189080 -0.01868056 -0.00038901 0 0 0 0
-0.01797038 0.18454610 -0.03791782 0 0 0 0
-0.03822862 0.15153518 0.06164768 0 0 0 0
0.05658627 0.11710651 0.01791013 0 0 0 0
-0.02408330 0.15846363 0.06763952 0 0 0 0
-0.01779645 0.16135937 0.06880544 0 0 0 0
-0.05802208 0.18322016 0.03174255 0 0 0 0
-0.04624920 0.13114637 0.06047871 0 0 0 0
0.00187728 -0.03551282 0.09867399 0 0 0 0
-0.00814669 0.08948594 -0.00097169 0 0 0 0
-0.04257512 0.12512074 0.06663468 0 0 0 0
0.05627172 0.04210506 0.06398369 0 0 0 0
-0.04093163 0.13258548 0.06537560 0 0 0 0
-0.02716313 -0.05523433 0.06120304 0 0 0 0
-0.04406138 -0.04488745 0.06015327 0 0 0 0
-0.05393377 -0.02556256 0.06001842 0 0 0 0
-0.02635506 0.15069787 0.06856699 0 0 0 0
-0.05469796 0.07141887 0.06213861 0 0 0 0
0.02170988 0.03114024 -0.00038704 0 0 0 0
-0.05433926 0.08118960 0.06148133 0 0 0 0
-0.02479452 0.09908129 0.08800679 0 0 0 0
-0.05530109 0.06156136 0.06228321 0 0 0 0
0.05411090 0.04164001 0.07218450 0 0 0 0
-0.03622416 0.13072403 0.06953414 0 0 0 0
-0.00608380 -0.06371131 0.04819347 0 0 0 0
-0.01827888 0.14153481 0.07426426 0 0 0 0
-0.04287476 -0.04291207 0.06709380 0 0 0 0
0.02179777 0.04111565 -0.00038677 0 0 0 0
-0.05790910 0.03149113 0.06209527 0 0 0 0
-0.05289063 -0.02263276 0.06622914 0 0 0 0
0.03324777 -0.05145017 0.06302240 0 0 0 0
-0.05857972 0.00168859 0.06198383 0 0 0 0
0.02188625 0.05115782 -0.00038640 0 0 0 0
-0.04997845 -0.00854410 0.08213738 0 0 0 0
-0.05854211 0.02171553 0.06225194 0 0 0 0
0.00203909 0.04156190 0.11135672 0 0 0 0
-0.05342456 0.07030495 0.06804490 0 0 0 0
-0.02028755 0.13435282 0.07627199 0 0 0 0
-0.02825697 0.13165136 0.07388625 0 0 0 0
-0.01920830 -0.05208936 0.07433446 0 0 0 0
-0.03074139 0.12314256 0.07572254 0 0 0 0
0.05927328 -0.02835325 0.03210613 0 0 0 0
0.06708352 0.00787268 0.01089297 0 0 0 0
-0.05378264 0.06110673 0.06923865 0 0 0 0
-0.05190135 -0.04168146 0.03235418 0 0 0 0
0.03842306 -0.05435690 0.04175600 0 0 0 0
0.02125957 0.12429280 -0.03553053 0 0 0 0
-0.03954381 0.11211456 0.07415663 0 0 0 0
-0.05376977 -0.01635798 0.06882422 0 0 0 0
-0.02656512 0.12057884 0.07880277 0 0 0 0
-0.05228471 -0.04242124 0.02285383 0 0 0 0
0.03957417 -0.05486033 0.03188720 0 0 0 0
0.05201011 0.13157816 0.05221483 0 0 0 0
-0.03510128 0.10989838 0.07837048 0 0 0 0
-0.02816029 0.18454766 0.03204297 0 0 0 0
0.05382025 -0.03883567 0.03206729 0 0 0 0
-0.03411828 -0.04413491 0.07827756 0 0 0 0
0.02806287 0.06852421 0.09767984 0 0 0 0
-0.04089707 -0.04132323 0.07400502 0 0 0 0
-0.05462256 -0.00786961 0.07097754 0 0 0 0
-0.05525731 0.03146617 0.07214313 0 0 0 0
-0.05289611 0.04339390 0.07623087 0 0 0 0
-0.04867413 -0.02845448 0.07214407 0 0 0 0
-0.05142152 -0.01913035 0.07303049 0 0 0 0
-0.05253423 -0.01013071 0.07559034 0 0 0 0
-0.00798262 -0.04843386 -0.00039004 0 0 0 0
-0.05576102 0.01175033 0.07227533 0 0 0 0
-0.02812327 0.06143558 0.00223297 0 0 0 0
-0.05570888 0.02143743 0.07230693 0 0 0 0
-0.04366225 -0.03449473 0.07850195 0 0 0 0
-0.05337433 0.00381127 0.07780723 0 0 0 0
-0.05355811 0.01219638 0.07837313 0 0 0 0
-0.06580110 0.18288551 0.01204476 0 0 0 0
-0.01811291 -0.06512643 0.02211348 0 0 0 0
-0.02715770 -0.04570054 0.08038657 0 0 0 0
0.02647766 0.03538748 0.10690239 0 0 0 0
-0.00786322 0.05134390 0.10864174 0 0 0 0
-0.03623429 0.08068417 0.08915818 0 0 0 0
-0.01794265 0.10120256 0.08951535 0 0 0 0
0.05529373 0.02171533 0.07244305 0 0 0 0
-0.01807920 -0.04773536 0.08214696 0 0 0 0
-0.01951497 -0.06240277 0.04303607 0 0 0 0
0.02209433 0.10078754 -0.00871478 0 0 0 0
-0.03390966 0.08836392 0.08772607 0 0 0 0
-0.01246856 0.05591974 0.10690226 0 0 0 0
-0.02166261 0.10560748 0.08679967 0 0 0 0
-0.04081966 0.08240983 0.08490542 0 0 0 0
0.03235565 0.07191143 0.09409537 0 0 0 0
-0.03800837 -0.03803991 0.08182617 0 0 0 0
0.04904620 0.14257483 -0.02651948 0 0 0 0
-0.05110023 0.03167403 0.08279869 0 0 0 0
0.04912343 0.08204092 0.02323430 0 0 0 0
-0.04515042 -0.02778776 0.08135416 0 0 0 0
-0.05116940 0.00140866 0.08242557 0 0 0 0
0.03167337 -0.03861486 -0.00038964 0 0 0 0
-0.02815603 0.18454792 0.04206367 0 0 0 0
0.05232689 -0.03854194 0.04211521 0 0 0 0
-0.05249046 0.05205871 0.07531014 0 0 0 0
-0.03984469 -0.05114568 0.05265724 0 0 0 0
0.05640909 0.12289455 0.04639298 0 0 0 0
-0.05694244 0.04162442 0.06221299 0 0 0 0
-0.05135774 0.01141573 0.08323906 0 0 0 0
-0.03479130 -0.03481622 0.08847056 0 0 0 0
-0.05612303 0.05169483 0.06205191 0 0 0 0
-0.05327379 0.04695501 0.01606154 0 0 0 0
-0.04411318 0.06035488 0.08856137 0 0 0 0
0.01089687 -0.03481326 0.09820923 0 0 0 0
-0.01658948 0.07939653 0.09816305 0 0 0 0
-0.02736931 -0.03694500 0.09052633 0 0 0 0
-0.00822260 0.09159055 0.09525432 0 0 0 0
-0.04250250 0.11751831 -0.01204543 0 0 0 0
-0.02998151 0.07247154 0.09568726 0 0 0 0
-0.01824119 0.07146966 0.10052708 0 0 0 0
0.00250005 -0.02260751 0.10660451 0 0 0 0
-0.03900128 0.06190702 0.09358131 0 0 0 0
-0.04446152 -0.01743677 0.08954917 0 0 0 0
0.04165443 0.11179966 -0.00765658 0 0 0 0
-0.02920082 -0.03044523 0.09498172 0 0 0 0
-0.02811273 0.11158652 -0.01777860 0 0 0 0
0.03912899 0.09399214 0.00508897 0 0 0 0
-0.04270716 0.03390284 0.09672997 0 0 0 0
0.05380043 0.12156687 0.05226647 0 0 0 0
-0.04668820 0.01152540 0.09215725 0 0 0 0
-0.05465632 0.04130151 0.07168119 0 0 0 0
-0.02460301 -0.00613948 0.10786906 0 0 0 0
-0.04222120 0.04221773 0.09585878 0 0 0 0
0.00193905 0.01138335 0.11434942 0 0 0 0
-0.04540201 -0.00807144 0.09140487 0 0 0 0
-0.04660615 0.02156632 0.09216765 0 0 0 0
-0.03065199 0.15290451 0.06597441 0 0 0 0
-0.01814805 -0.02835818 0.10088603 0 0 0 0
-0.04336278 0.01966112 0.09744971 0 0 0 0
0.00196791 0.02163741 0.11410090 0 0 0 0
-0.02822573 0.05151115 0.10296792 0 0 0 0
-0.05135179 0.02140414 0.08334538 0 0 0 0
-0.02879377 0.04179524 0.10510633 0 0 0 0
0.05618278 -0.00984498 0.06482862 0 0 0 0
-0.01880801 -0.01941436 0.10542889 0 0 0 0
-0.05341673 0.03000623 0.07778452 0 0 0 0
-0.02565077 0.11548448 -0.02417649 0 0 0 0
-0.03818817 0.03134059 0.10156159 0 0 0 0
0.04908038 0.12083349 0.05989270 0 0 0 0
-0.04346144 0.01169366 0.09753392 0 0 0 0
0.02201680 0.15141769 0.06965952 0 0 0 0
-0.02905359 -0.00890648 0.10524503 0 0 0 0
-0.04094636 0.05223295 0.09484302 0 0 0 0
-0.03132494 0.00095962 0.10628968 0 0 0 0
-0.03186326 0.02151616 0.10651056 0 0 0 0
0.04187856 -0.03826609 -0.00038964 0 0 0 0
-0.05429829 0.05107098 0.07034348 0 0 0 0
0.01189278 0.18454790 0.04200553 0 0 0 0
-0.01808937 -0.00818843 0.10944230 0 0 0 0
-0.04231764 0.07456696 0.08623402 0 0 0 0
-0.03819362 0.07149372 0.01311141 0 0 0 0
-0.03566255 0.18167906 0.05865960 0 0 0 0
-0.02701167 0.02152974 0.10875235 0 0 0 0
-0.04605842 0.03142921 0.09204749 0 0 0 0
-0.05473926 0.14269316 -0.01640601 0 0 0 0
-0.03928044 0.06247482 0.01081271 0 0 0 0
-0.02729050 0.01158087 0.10896378 0 0 0 0
0.02157628 -0.04674266 0.08167126 0 0 0 0
0.03272654 -0.04007151 0.08327951 0 0 0 0
0.04472305 0.00134638 0.09388337 0 0 0 0
-0.01821263 0.02150610 0.11175558 0 0 0 0
0.01199928 0.17141536 -0.06589606 0 0 0 0
0.01943518 0.17205109 -0.06392327 0 0 0 0
0.01152774 0.16188382 -0.06445476 0 0 0 0
0.01500104 0.15829901 -0.06231861 0 0 0 0
0.00177432 0.15412964 -0.06381635 0 0 0 0
-0.00765675 -0.04496602 0.08887437 0 0 0 0
0.03148506 0.18309352 -0.05735512 0 0 0 0
-0.01335884 0.15572539 -0.06299455 0 0 0 0
0.01124739 0.05059825 0.10823147 0 0 0 0
0.03149300 0.11261146 -0.01708339 0 0 0 0
0.03902175 0.18192819 -0.05440312 0 0 0 0
0.04648529 -0.01171529 0.08638545 0 0 0 0
0.02987008 -0.04495344 0.07942648 0 0 0 0
0.02020508 -0.05431427 0.06929570 0 0 0 0
0.03197055 0.17144969 -0.05770200 0 0 0 0
-0.02935782 -0.04126464 0.08467446 0 0 0 0
0.02184127 0.15150425 -0.05711247 0 0 0 0
0.04464117 -0.05141452 0.02220736 0 0 0 0
0.00189124 0.14157765 -0.05688604 0 0 0 0
0.04907659 0.18225551 -0.04524331 0 0 0 0
-0.04318981 0.06735541 0.08759218 0 0 0 0
0.04832098 0.17241292 -0.04445160 0 0 0 0
0.04721905 0.16549210 -0.04302318 0 0 0 0
-0.05754290 -0.00832923 0.06172115 0 0 0 0
0.01352432 0.13794427 -0.05186550 0 0 0 0
0.03923365 0.15251438 -0.04531149 0 0 0 0
-0.01810626 0.18454702 0.00197328 0 0 0 0
0.03734327 0.14568231 -0.04334407 0 0 0 0
-0.02650418 0.00202145 0.10850883 0 0 0 0
-0.03613499 0.05083239 0.09903156 0 0 0 0
0.02791736 0.13557594 -0.04358120 0 0 0 0
-0.05339328 0.14691733 0.04736449 0 0 0 0
-0.04328227 0.00418574 0.09732650 0 0 0 0
0.02119215 0.13378792 -0.04546819 0 0 0 0
0.02621398 0.14763889 -0.05252139 0 0 0 0
0.01192837 0.13223760 -0.04721420 0 0 0 0
0.00189564 0.13143532 -0.04789240 0 0 0 0
-0.00823158 0.13170820 -0.04752870 0 0 0 0
0.05200521 0.18351097 -0.03795192 0 0 0 0
0.05778875 0.18208405 -0.03430247 0 0 0 0
-0.01807226 0.00161029 0.11131427 0 0 0 0
0.05292206 0.17135599 -0.03816735 0 0 0 0
0.01797756 0.16460091 -0.06331613 0 0 0 0
0.05016153 0.16189314 -0.03733188 0 0 0 0
-0.04181185 0.10311610 0.07587507 0 0 0 0
0.02274998 0.12935317 -0.04009366 0 0 0 0
-0.02804969 0.17160162 0.06347941 0 0 0 0
0.04828121 0.15311278 -0.03498375 0 0 0 0
-0.04479665 0.14091013 0.05902632 0 0 0 0
-0.01817137 0.18454725 0.01215850 0 0 0 0
0.04090252 0.14216532 -0.03701683 0 0 0 0
0.03811709 0.13484508 -0.03433774 0 0 0 0
-0.02807100 0.18454635 -0.02790893 0 0 0 0
0.05022460 -0.03834027 0.05191732 0 0 0 0
-0.04943664 0.05158927 0.08220180 0 0 0 0
-0.03839476 -0.04892661 0.06231672 0 0 0 0
0.00172411 -0.02861838 -0.00038935 0 0 0 0
-0.06066679 -0.01844664 0.04210207 0 0 0 0
0.02952887 0.08416975 0.00591377 0 0 0 0
0.03827096 0.17271714 -0.05384019 0 0 0 0
0.05623961 0.16853257 -0.03163807 0 0 0 0
-0.01117327 -0.06325378 0.04623723 0 0 0 0
0.06595226 -0.00846022 0.02222872 0 0 0 0
0.01150824 0.12300510 -0.03711172 0 0 0 0
0.05201956 0.01133925 -0.00038777 0 0 0 0
0.01172617 -0.05870507 -0.00039049 0 0 0 0
0.00187142 0.12243913 -0.03764421 0 0 0 0
0.03467067 0.12821940 -0.03092333 0 0 0 0
-0.00801190 -0.05575158 0.07157718 0 0 0 0
0.03928902 -0.00800240 0.09946926 0 0 0 0
0.01228625 0.11817706 -0.03085549 0 0 0 0
0.01092142 0.10892989 0.08801570 0 0 0 0
-0.06134803 0.01185473 0.05227549 0 0 0 0
-0.00826511 0.11785380 -0.03110799 0 0 0 0
-0.01806201 0.18454745 0.02221400 0 0 0 0
-0.04163316 0.14951183 -0.04114461 0 0 0 0
0.03135780 0.18276523 0.05982615 0 0 0 0
0.04491974 0.13959880 -0.03016512 0 0 0 0
-0.03851709 0.01159506 0.10270198 0 0 0 0
0.05487777 0.16072138 -0.02936382 0 0 0 0
-0.02813826 0.16144527 -0.05776502 0 0 0 0
-0.03752331 0.04135232 0.10030099 0 0 0 0
0.01179599 0.03148393 0.11194458 0 0 0 0
0.02962127 0.09047375 0.08861175 0 0 0 0
0.05208610 0.15160760 -0.02803050 0 0 0 0
-0.02807806 0.18454748 0.02213713 0 0 0 0
0.05438331 -0.03967908 0.02214872 0 0 0 0
-0.03697789 -0.04589026 0.07128740 0 0 0 0
-0.01825842 -0.03876321 0.09263083 0 0 0 0
0.02243512 0.11958604 -0.02939861 0 0 0 0
-0.03063045 0.14976552 -0.05110892 0 0 0 0
0.04156996 0.13179056 -0.02762218 0 0 0 0
0.03867099 0.12486301 -0.02435050 0 0 0 0
-0.05538264 0.00171437 0.07202906 0 0 0 0
-0.05645118 0.16171369 -0.02779691 0 0 0 0
0.02092463 0.11494739 -0.02488453 0 0 0 0
0.03181936 0.18454589 -0.04811957 0 0 0 0
0.01163354 0.11387792 -0.02612246 0 0 0 0
0.00191943 0.11347435 -0.02656407 0 0 0 0
-0.00789220 0.11375380 -0.02636864 0 0 0 0
0.03272158 0.15198073 0.06445746 0 0 0 0
0.00188701 0.10870054 -0.02021251 0 0 0 0
0.03389302 0.09249093 0.08534889 0 0 0 0
0.05558753 0.14992590 -0.02015707 0 0 0 0
0.03182633 0.18454653 -0.01800816 0 0 0 0
0.04596750 0.14274868 0.05618014 0 0 0 0
0.01183703 0.10904069 -0.01989774 0 0 0 0
0.02423138 0.10386578 0.08594872 0 0 0 0
-0.02424862 0.03925414 0.10758738 0 0 0 0
-0.00821429 0.10888871 -0.02009047 0 0 0 0
0.06330624 0.17130335 -0.01808666 0 0 0 0
0.05720822 0.14582130 -0.01310544 0 0 0 0
0.04520360 0.12893203 -0.02038844 0 0 0 0
0.04958850 0.13241835 -0.01689101 0 0 0 0
-0.04925455 0.10132787 0.01187172 0 0 0 0
-0.03838836 0.00170245 0.10211860 0 0 0 0
-0.01739341 -0.06456318 0.03165459 0 0 0 0
0.02233433 0.11035875 -0.01880541 0 0 0 0
-0.01829234 -0.06067470 0.05212690 0 0 0 0
-0.03867303 0.09170813 0.08299090 0 0 0 0
0.02063075 0.10541461 -0.01405588 0 0 0 0
-0.05674597 0.05155111 0.04221691 0 0 0 0
0.03480215 0.14265344 0.06579214 0 0 0 0
0.00191101 0.10425105 -0.01535437 0 0 0 0
-0.06235429 0.15894157 -0.01042990 0 0 0 0
0.05279217 0.08146949 0.03192419 0 0 0 0
-0.04335268 -0.02474097 0.08771259 0 0 0 0
0.04192160 0.18454771 0.03210412 0 0 0 0
-0.00781786 0.10435864 -0.01517691 0 0 0 0
0.06226642 0.18415710 -0.00832237 0 0 0 0
0.01195327 0.06130878 -0.00023035 0 0 0 0
0.02408666 0.17087866 -0.06177228 0 0 0 0
-0.05222670 0.06257403 0.02988096 0 0 0 0
0.00207706 0.09935623 -0.00973873 0 0 0 0
0.01287719 -0.02102227 0.10601612 0 0 0 0
-0.01820483 0.10041207 -0.00910005 0 0 0 0
0.01209611 0.09972467 -0.00952305 0 0 0 0
-0.06073970 0.15151082 -0.00795669 0 0 0 0
0.06733810 0.18174991 -0.00638199 0 0 0 0
0.04559500 0.09842268 0.00863242 0 0 0 0
-0.03850274 0.02159072 0.10235996 0 0 0 0
0.06710646 0.17508918 -0.00445383 0 0 0 0
0.06359147 0.16148648 -0.00816433 0 0 0 0
0.05795282 0.12143558 0.04150153 0 0 0 0
0.06069060 0.15160851 -0.00798356 0 0 0 0
0.05824289 0.14260255 -0.00662173 0 0 0 0
0.03434039 0.11829568 -0.02102423 0 0 0 0
0.05707727 0.13566050 -0.00352065 0 0 0 0
-0.05611639 0.04097310 0.01256756 0 0 0 0
0.04955573 0.12240153 -0.00712304 0 0 0 0
-0.06607078 0.01160698 0.02226601 0 0 0 0
0.04757321 0.11544415 -0.00406771 0 0 0 0
0.03872961 0.10502245 -0.00425131 0 0 0 0
-0.05442319 0.11264191 0.01341724 0 0 0 0
-0.04731858 -0.03840112 0.06200920 0 0 0 0
0.05529588 0.14190863 0.04445013 0 0 0 0
0.02093167 0.09521707 -0.00408939 0 0 0 0
-0.04534339 0.10301219 0.00413812 0 0 0 0
-0.04299580 -0.00292523 0.09697557 0 0 0 0
0.04570356 0.15889724 -0.04147770 0 0 0 0
-0.00822994 -0.06471850 0.04190672 0 0 0 0
0.06643358 0.00161649 0.02292437 0 0 0 0
0.01180229 0.09435201 -0.00467690 0 0 0 0
-0.05623614 0.15140285 0.04185874 0 0 0 0
-0.04619051 0.00154779 0.09216838 0 0 0 0
0.00199249 0.09406348 -0.00488056 0 0 0 0
-0.04780233 0.12139126 0.06201176 0 0 0 0
0.02470347 0.04261733 0.10633619 0 0 0 0
0.04068027 0.09110540 0.08077264 0 0 0 0
-0.01833263 0.09026890 -0.00054601 0 0 0 0
0.02786287 0.11604828 -0.02337459 0 0 0 0
0.04205257 0.18371943 -0.04813474 0 0 0 0
0.01183041 0.07155933 0.10189244 0 0 0 0
0.00199433 0.08931135 -0.00102877 0 0 0 0
-0.05906746 -0.02863285 0.03221810 0 0 0 0
0.06579914 0.17121986 -0.00841217 0 0 0 0
0.05188740 0.18454747 0.02221595 0 0 0 0
0.03397429 0.09832014 -0.00140564 0 0 0 0
0.04154950 0.16181590 -0.04725586 0 0 0 0
-0.00825558 -0.06607819 0.03191543 0 0 0 0
0.01225514 0.08960845 -0.00093769 0 0 0 0
-0.00807392 0.13161471 0.07991975 0 0 0 0
0.01754741 0.16808076 0.06737349 0 0 0 0
-0.03754941 0.16133033 0.05999319 0 0 0 0
0.04525354 0.10892757 -0.00084262 0 0 0 0
-0.05618838 0.11148795 0.02195347 0 0 0 0
0.03986424 -0.05564845 0.00296620 0 0 0 0
-0.04505029 -0.03701647 0.07141860 0 0 0 0
0.02240929 0.09079010 -0.00028749 0 0 0 0
-0.00815403 0.08166965 0.00319278 0 0 0 0
0.01160822 0.10463278 -0.01498182 0 0 0 0
0.01181368 0.06167194 0.10503277 0 0 0 0
0.02882573 0.11865747 0.07799504 0 0 0 0
0.00194112 0.08157122 0.00307815 0 0 0 0
-0.00822623 0.07189552 0.00427148 0 0 0 0
0.06015348 -0.00861121 0.05212805 0 0 0 0
0.00199772 0.07183260 0.00395795 0 0 0 0
0.01277077 0.11337811 0.08585665 0 0 0 0
-0.05885204 0.01176697 0.06210444 0 0 0 0
-0.00785722 0.12264578 -0.03742412 0 0 0 0
0.02010402 0.18177405 -0.06412876 0 0 0 0
0.01215327 0.08168510 0.00344608 0 0 0 0
-0.00808617 0.18454656 -0.01803776 0 0 0 0
-0.01783238 0.04150102 0.10911724 0 0 0 0
0.05388029 0.16179377 0.04294558 0 0 0 0
0.03158482 0.12221362 -0.02734171 0 0 0 0
0.05573911 0.12926684 0.00010508 0 0 0 0
0.05789618 0.13312770 0.00296946 0 0 0 0
0.05009994 0.04149588 0.08215248 0 0 0 0
-0.02807801 0.08157209 0.09321917 0 0 0 0
-0.04841177 0.15175547 0.05222539 0 0 0 0
0.04758975 0.10505839 0.00557170 0 0 0 0
0.04197046 0.10165235 0.00181604 0 0 0 0
-0.06068572 0.16150637 0.03202265 0 0 0 0
0.04983131 0.08144626 0.07190672 0 0 0 0
-0.05244927 -0.03212211 0.05524709 0 0 0 0
-0.06632201 0.18299355 0.00204933 0 0 0 0
-0.02840104 -0.04979132 0.07240643 0 0 0 0
-0.03808829 0.18454747 0.02221344 0 0 0 0
0.03775857 0.05739036 0.00537049 0 0 0 0
0.02199864 0.08180033 0.00477656 0 0 0 0
0.04179419 -0.02840665 -0.00038928 0 0 0 0
-0.02865724 0.16182555 0.06482406 0 0 0 0
0.03124254 0.06024728 0.00320580 0 0 0 0
0.04215718 0.01135472 -0.00038777 0 0 0 0
0.00181854 0.18454747 0.02213796 0 0 0 0
0.05595589 -0.03115857 0.04311773 0 0 0 0
-0.03066159 0.03208885 0.10601394 0 0 0 0
-0.05538316 0.06159239 0.04198062 0 0 0 0
0.02083783 -0.06472611 0.00306006 0 0 0 0
0.02826116 0.14901923 0.06770264 0 0 0 0
0.01198493 -0.06646371 0.00251484 0 0 0 0
0.06767578 0.18171208 0.00202742 0 0 0 0
0.02162261 0.01132171 -0.00038782 0 0 0 0
-0.06015525 0.14157327 0.00196063 0 0 0 0
0.06722274 0.17349415 0.00251200 0 0 0 0
0.00183246 0.02126197 -0.00038740 0 0 0 0
-0.06035254 -0.02850915 0.02221156 0 0 0 0
0.06053903 0.14147122 0.03198903 0 0 0 0
0.06654487 0.16841787 0.00204699 0 0 0 0
0.06532243 0.16140458 0.00215606 0 0 0 0
-0.05129159 0.10187437 0.06372994 0 0 0 0
-0.04313349 0.02670453 0.09728436 0 0 0 0
0.05570993 0.13937670 -0.01002762 0 0 0 0
0.04976292 0.15134111 0.05012093 0 0 0 0
0.03643952 0.08728015 0.00746924 0 0 0 0
-0.01788818 -0.06555934 0.00271656 0 0 0 0
-0.03063615 -0.05238860 0.06442758 0 0 0 0
-0.05573727 0.16143350 0.04116980 0 0 0 0
0.04723603 0.07864586 0.07755918 0 0 0 0
-0.05140085 -0.02937547 0.06312704 0 0 0 0
-0.03811333 0.18454723 0.01214666 0 0 0 0
-0.04261737 0.07410977 0.01713791 0 0 0 0
0.02611608 0.07734401 0.00751173 0 0 0 0
0.04150496 0.05139590 0.00164125 0 0 0 0
0.00178983 0.00163884 -0.00038813 0 0 0 0
-0.05568559 0.18231453 -0.03663601 0 0 0 0
0.05777000 0.15129942 0.03855013 0 0 0 0
0.04842283 0.04770911 0.00428552 0 0 0 0
-0.01795765 0.02129301 -0.00038751 0 0 0 0
0.03203011 0.16152224 0.06268961 0 0 0 0
0.05697896 0.03709096 0.00652909 0 0 0 0
0.05962646 0.03105439 0.00290750 0 0 0 0
0.03744823 -0.05386665 0.04844715 0 0 0 0
0.03154029 0.13198072 -0.03729672 0 0 0 0
0.03183278 0.18454678 -0.00807043 0 0 0 0
0.06275908 0.02097083 0.00206229 0 0 0 0
0.01159394 0.14233448 -0.05589860 0 0 0 0
0.06332074 0.01199816 0.00110026 0 0 0 0
0.00186683 0.17140685 0.06914333 0 0 0 0
0.06106517 -0.02826688 0.00257673 0 0 0 0
0.06721967 0.00869237 0.00360842 0 0 0 0
0.02527574 0.07258979 0.00746899 0 0 0 0
0.06737913 -0.00757888 0.00345678 0 0 0 0
0.06235022 -0.00887217 0.00027233 0 0 0 0
-0.05356178 0.02175226 0.07836775 0 0 0 0
0.06706920 0.17445207 0.00907379 0 0 0 0
0.04889948 0.16115634 0.04939879 0 0 0 0
0.02847682 0.12574728 -0.03371744 0 0 0 0
0.05337348 0.13141870 -0.00790520 0 0 0 0
0.05937750 0.13156925 0.01180514 0 0 0 0
-0.05522837 0.08161841 0.04211750 0 0 0 0
0.05805384 0.16303939 -0.02512301 0 0 0 0
0.04095033 0.08203887 0.01350793 0 0 0 0
-0.01830075 0.07169884 0.00541312 0 0 0 0
0.03975082 0.07162978 0.01466591 0 0 0 0
0.05642424 0.02626682 0.06660336 0 0 0 0
-0.03733496 0.10115173 0.08029609 0 0 0 0
-0.06332187 0.16467464 -0.01481612 0 0 0 0
0.06055365 0.15160638 0.03189724 0 0 0 0
0.04921730 0.05030568 0.01308524 0 0 0 0
0.00196537 0.18454632 -0.02790998 0 0 0 0
0.05465655 -0.02895382 0.05249482 0 0 0 0
-0.02596277 0.03108001 0.10827537 0 0 0 0
0.03208664 0.10146385 0.08289976 0 0 0 0
-0.05401622 0.06077083 0.03434720 0 0 0 0
0.02084854 -0.06458047 0.01228512 0 0 0 0
0.01126965 0.08064448 0.09868091 0 0 0 0
0.05431287 0.04241595 0.01208337 0 0 0 0
0.06019315 0.18282746 -0.02744621 0 0 0 0
-0.06077414 0.02169937 0.05212947 0 0 0 0
-0.02813653 0.18454725 0.01215834 0 0 0 0
0.05474383 -0.04028514 0.01197757 0 0 0 0
0.02192869 0.12135167 0.07998928 0 0 0 0
0.06403315 -0.01845559 0.02218856 0 0 0 0
-0.05757261 0.11158890 0.03192029 0 0 0 0
-0.05113519 -0.04022134 0.04267891 0 0 0 0
0.04009673 -0.05549448 0.01200591 0 0 0 0
0.04603120 -0.03162139 0.07477478 0 0 0 0
-0.00818570 0.17138252 -0.06673567 0 0 0 0
0.06626349 0.01268459 0.01243986 0 0 0 0
-0.05220046 0.09217513 0.06490915 0 0 0 0
-0.02576886 0.07006355 0.09837530 0 0 0 0
0.03918277 -0.04507875 0.07007255 0 0 0 0
0.03193528 0.17160437 0.06115149 0 0 0 0
0.06651603 -0.01086228 0.01303813 0 0 0 0
-0.05390573 0.08208746 0.03430706 0 0 0 0
0.06051024 0.16152363 -0.01808492 0 0 0 0
0.04543798 0.08024482 0.01875569 0 0 0 0
0.02041552 -0.06435995 0.02182665 0 0 0 0
0.06331458 0.15148899 0.02187175 0 0 0 0
0.06055533 0.13177940 0.02188758 0 0 0 0
-0.04777471 -0.01858040 0.08209515 0 0 0 0
0.02201738 0.06126783 0.00088000 0 0 0 0
-0.05813574 0.18454723 0.01209669 0 0 0 0
-0.01736187 0.10505464 -0.01454553 0 0 0 0
0.05851790 0.12168092 0.02193736 0 0 0 0
0.05575893 0.11060993 0.02115356 0 0 0 0
-0.05345690 -0.03393579 0.04923766 0 0 0 0
0.05733803 0.11425731 0.02414944 0 0 0 0
0.05818060 -0.03543841 0.00316989 0 0 0 0
0.05355591 0.10145178 0.02190853 0 0 0 0
0.04424951 0.07195927 0.08358707 0 0 0 0
-0.06025805 0.13169482 0.03209540 0 0 0 0
0.04841920 0.07166680 0.02446011 0 0 0 0
0.04900749 0.06103383 0.02341950 0 0 0 0
-0.05617421 -0.03814333 0.00270877 0 0 0 0
0.05549284 0.04359991 0.02159810 0 0 0 0
-0.01824758 0.08180364 0.00397048 0 0 0 0
0.02587044 0.12541789 0.07676522 0 0 0 0
0.06256517 -0.01855161 0.03218028 0 0 0 0
0.03191931 -0.05770573 0.04199892 0 0 0 0
0.02183179 -0.06162874 0.04234044 0 0 0 0
-0.04999916 0.11177470 0.06251431 0 0 0 0
-0.01729373 0.14352240 -0.05510962 0 0 0 0
-0.06206540 -0.01966733 0.03303557 0 0 0 0
0.03294817 0.08068512 0.00888767 0 0 0 0
0.01137581 0.17116958 0.06821256 0 0 0 0
0.05785526 0.03860199 0.02275333 0 0 0 0
-0.02834883 -0.02857121 -0.00038938 0 0 0 0
0.06023097 0.03165304 0.01214806 0 0 0 0
0.03333257 0.02160364 0.10522135 0 0 0 0
0.04305733 -0.04954280 0.00109253 0 0 0 0
0.06069350 0.03162403 0.02217393 0 0 0 0
-0.04669877 0.17178783 -0.04644204 0 0 0 0
0.06697346 0.00088169 0.01827703 0 0 0 0
0.02254677 -0.05949655 0.00035633 0 0 0 0
0.03162506 -0.05917330 0.00206082 0 0 0 0
0.01182882 0.18454747 0.02221484 0 0 0 0
0.04943091 -0.04639318 0.02203727 0 0 0 0
0.03190127 0.18454726 0.01215926 0 0 0 0
0.06380457 0.02177227 0.02194372 0 0 0 0
-0.01535849 0.17029893 0.06773964 0 0 0 0
0.06578992 0.01165636 0.02221626 0 0 0 0
-0.04814697 0.09153540 0.07226905 0 0 0 0
0.03448371 0.13899124 -0.04084919 0 0 0 0
-0.05620684 -0.03811594 0.01194425 0 0 0 0
0.05638658 0.04483357 0.02990140 0 0 0 0
0.05800423 -0.03545053 0.01182550 0 0 0 0
-0.02192728 -0.06301855 0.03354971 0 0 0 0
0.05667387 0.10782780 0.02846032 0 0 0 0
0.02191193 -0.05945898 0.05212584 0 0 0 0
-0.04507916 0.11069268 0.06927378 0 0 0 0
0.06771014 0.00132150 0.00337779 0 0 0 0
0.06491186 -0.01857772 0.01210768 0 0 0 0
0.04174398 0.12172829 -0.01756568 0 0 0 0
-0.05178128 0.10977397 0.00980830 0 0 0 0
0.03150710 -0.05587295 0.05178035 0 0 0 0
0.02363805 -0.06240775 0.03277897 0 0 0 0
0.06014330 0.13153492 0.03205927 0 0 0 0
0.03393095 0.06411726 0.00889821 0 0 0 0
-0.05553709 0.17138313 0.04062205 0 0 0 0
0.05487435 0.11155587 0.05227724 0 0 0 0
0.05768743 0.11202716 0.03232775 0 0 0 0
-0.05778622 0.13147189 0.04219180 0 0 0 0
0.05194298 0.07158929 0.03180914 0 0 0 0
0.06545645 0.16147609 0.01237906 0 0 0 0
0.03628000 0.08547530 0.08659120 0 0 0 0
-0.01816954 0.09153465 0.09321182 0 0 0 0
0.04316304 0.09092080 0.01106228 0 0 0 0
-0.02785270 0.02130853 -0.00038761 0 0 0 0
0.04810309 0.09334305 0.01546369 0 0 0 0
0.01196869 0.18454726 0.01215896 0 0 0 0
0.04730743 -0.04412000 0.04976084 0 0 0 0
0.02567200 -0.06295069 0.01252944 0 0 0 0
0.03206498 -0.05895421 0.03209382 0 0 0 0
0.03841772 -0.01552528 0.09797350 0 0 0 0
0.05259857 0.06165787 0.03199605 0 0 0 0
0.05478603 0.05159685 0.03224866 0 0 0 0
-0.04627694 0.18235143 0.05010629 0 0 0 0
0.04432148 -0.05085915 0.03230071 0 0 0 0
0.05815785 0.04067299 0.03261998 0 0 0 0
-0.01822309 0.15162727 0.07115064 0 0 0 0
0.04505583 -0.05140655 0.01225429 0 0 0 0
-0.02282632 -0.06313633 0.02233052 0 0 0 0
-0.00804163 0.09958129 -0.00966503 0 0 0 0
0.06069589 0.03157488 0.03221424 0 0 0 0
0.00191942 0.06129891 -0.00038589 0 0 0 0
0.06314254 0.02181436 0.03193842 0 0 0 0
-0.05460180 0.15313883 -0.02568079 0 0 0 0
0.05525355 0.01169543 0.07291993 0 0 0 0
0.06461587 0.01150248 0.03233233 0 0 0 0
0.06518909 0.00139753 0.03213567 0 0 0 0
0.01197800 0.18454638 -0.02791033 0 0 0 0
0.04982030 -0.04666281 0.01217705 0 0 0 0
-0.03450426 0.13879566 0.06801416 0 0 0 0
0.05812488 0.13124827 0.04041031 0 0 0 0
0.05208686 0.04114289 0.00215777 0 0 0 0
0.03206478 0.07162984 0.00995904 0 0 0 0
0.02751099 0.10643981 -0.01324687 0 0 0 0
0.01203299 0.04150341 0.11023036 0 0 0 0
0.05165771 0.18326198 0.04168835 0 0 0 0
0.05186331 0.18454771 0.03202401 0 0 0 0
0.03141714 0.10255411 -0.00674743 0 0 0 0
0.05723577 0.17098117 0.03783948 0 0 0 0
-0.04743540 0.16135666 0.05158538 0 0 0 0
0.01727677 -0.06373871 0.03836561 0 0 0 0
-0.06653921 0.01150163 0.00250269 0 0 0 0
0.05321877 0.11148034 0.01186472 0 0 0 0
-0.05507992 -0.03685750 0.03170890 0 0 0 0
0.05746780 0.11175603 0.04154092 0 0 0 0
-0.01802421 0.15149781 -0.05903595 0 0 0 0
0.03381439 0.10840076 -0.01093382 0 0 0 0
-0.03383611 -0.05378132 0.05763638 0 0 0 0
-0.05055108 0.04156234 0.08214237 0 0 0 0
0.04517055 0.11881463 -0.01036073 0 0 0 0
-0.04845504 0.11140443 0.00168324 0 0 0 0
0.03216777 -0.05967012 0.02207992 0 0 0 0
0.02522409 -0.06267512 0.02284173 0 0 0 0
0.03573359 -0.05286071 0.05492649 0 0 0 0
-0.04640568 0.10114955 0.07127675 0 0 0 0
-0.06487642 -0.01855108 0.01204483 0 0 0 0
0.05317630 0.14151043 -0.01803959 0 0 0 0
-0.06462505 0.02143766 0.01198083 0 0 0 0
0.06013120 0.14144976 0.00182680 0 0 0 0
0.00174587 -0.01860191 -0.00038891 0 0 0 0
-0.01785408 0.13304585 -0.04630577 0 0 0 0
0.03199966 0.09170858 0.00221331 0 0 0 0
0.05941537 0.18258810 0.03165320 0 0 0 0
0.02858573 0.00261786 0.10757157 0 0 0 0
-0.03775181 -0.00819241 0.10077124 0 0 0 0
0.02203811 0.18424696 -0.05834367 0 0 0 0
-0.06036574 0.17160611 0.03231895 0 0 0 0
0.05676563 0.10994314 0.04617430 0 0 0 0
-0.06320138 0.17450441 -0.02353582 0 0 0 0
0.05739753 0.16083676 0.03814516 0 0 0 0
-0.05528262 0.05167409 0.03216450 0 0 0 0
-0.05201579 0.06190102 0.07409244 0 0 0 0
-0.03780813 -0.02800887 0.09146241 0 0 0 0
-0.03815714 0.18454702 0.00199489 0 0 0 0
0.05583475 0.09158910 0.04196462 0 0 0 0
0.04832784 0.18218765 0.04840908 0 0 0 0
-0.01862234 0.10983548 -0.01917203 0 0 0 0
0.05653460 0.10055081 0.04249325 0 0 0 0
-0.04807739 0.18454723 0.01216908 0 0 0 0
0.05706800 0.10473320 0.04002295 0 0 0 0
0.03513313 0.11372752 0.07605746 0 0 0 0
0.05511624 0.08159581 0.04213438 0 0 0 0
0.02177799 0.18454678 -0.00802661 0 0 0 0
-0.01854486 0.11210871 0.08507291 0 0 0 0
-0.00805200 0.18454747 0.02213769 0 0 0 0
0.04492973 0.02156231 0.09397098 0 0 0 0
0.05509732 0.06162478 0.04201136 0 0 0 0
0.05617035 0.05253464 0.04154004 0 0 0 0
-0.05568552 0.09170064 0.05204112 0 0 0 0
0.01218880 -0.06617315 0.02205672 0 0 0 0
-0.03179451 0.09482288 0.08637772 0 0 0 0
-0.05806840 0.18454699 0.00204918 0 0 0 0
0.05910975 0.12150726 0.03191341 0 0 0 0
0.06299788 0.15149811 0.00214667 0 0 0 0
-0.06596416 -0.00847788 0.02220905 0 0 0 0
0.05711775 0.04848524 0.04449537 0 0 0 0
-0.06226756 -0.00923772 0.04331816 0 0 0 0
0.05341562 0.17162512 0.04268695 0 0 0 0
-0.02823247 0.18454589 -0.04802974 0 0 0 0
0.05830192 0.04157744 0.04202106 0 0 0 0
0.01191058 0.18454704 0.00199501 0 0 0 0
-0.02837681 0.09167042 0.00087873 0 0 0 0
0.04824813 -0.04503778 0.04139599 0 0 0 0
0.06040727 0.03146380 0.04218575 0 0 0 0
0.04157277 0.03156161 -0.00038704 0 0 0 0
-0.01646178 -0.04420418 0.08801081 0 0 0 0
0.05148916 0.02144056 0.08214621 0 0 0 0
-0.04490106 0.16273415 -0.04493245 0 0 0 0
0.06044903 -0.02846763 0.02218405 0 0 0 0
0.06202851 0.02181920 0.04199594 0 0 0 0
0.04557553 0.06302102 0.01898133 0 0 0 0
-0.02797073 0.18355256 -0.05812593 0 0 0 0
0.05198723 -0.02852184 0.06230338 0 0 0 0
0.05796900 0.04146411 0.05212179 0 0 0 0
0.04469151 0.05414494 0.01031740 0 0 0 0
-0.02157280 -0.03285780 0.09663791 0 0 0 0
0.06738341 0.00160445 0.01213918 0 0 0 0
-0.02946214 0.07207461 0.00847355 0 0 0 0
-0.03822763 0.12133105 0.07144842 0 0 0 0
0.03201941 -0.06013180 0.01213813 0 0 0 0
0.00217498 0.06238966 0.10590929 0 0 0 0
0.01183699 0.18454768 0.03204458 0 0 0 0
0.04882044 -0.04595246 0.03198732 0 0 0 0
0.04311963 -0.03895561 0.07251862 0 0 0 0
0.01093967 -0.06430443 0.04137443 0 0 0 0
0.00189746 0.05118919 -0.00038628 0 0 0 0
0.05186107 -0.01849068 0.07204903 0 0 0 0
0.02442433 0.16258873 0.06603011 0 0 0 0
-0.05250052 0.04579225 0.00985201 0 0 0 0
0.06317031 0.01166085 0.04217465 0 0 0 0
0.06258793 -0.00843890 0.04220441 0 0 0 0
0.04165818 0.18330459 0.05191651 0 0 0 0
0.04390111 0.16200726 0.05426251 0 0 0 0
0.03790644 0.18040393 0.05761184 0 0 0 0
-0.06379654 0.02038498 0.03167941 0 0 0 0
0.02218399 0.05183981 0.10496604 0 0 0 0
0.03895632 0.10035346 0.07875757 0 0 0 0
0.05049742 0.14128163 0.05163641 0 0 0 0
0.03179706 -0.02866556 -0.00038925 0 0 0 0
0.02206758 -0.02865030 -0.00038925 0 0 0 0
-0.03756540 -0.05617515 0.03196562 0 0 0 0
-0.04567047 0.04136447 0.09099864 0 0 0 0
0.02576755 -0.05286127 0.06596879 0 0 0 0
0.03562845 0.15964182 -0.05164572 0 0 0 0
0.02538702 0.07484988 0.09664690 0 0 0 0
0.03901138 0.16099717 0.05851114 0 0 0 0
0.06186078 0.14171056 0.01192039 0 0 0 0
0.05717419 0.18128230 0.03779674 0 0 0 0
-0.06224605 0.16980949 -0.02034277 0 0 0 0
-0.01723170 -0.05486331 0.07010745 0 0 0 0
0.05537933 0.10159719 0.05215439 0 0 0 0
-0.01543614 -0.06391654 0.04025122 0 0 0 0
0.05543088 0.08172070 0.05238096 0 0 0 0
-0.05165859 0.13991386 -0.02007809 0 0 0 0
-0.05362406 0.13536713 -0.01334561 0 0 0 0
0.05549455 0.07149075 0.05202590 0 0 0 0
0.02162257 0.02123093 -0.00038739 0 0 0 0
-0.05401776 0.09135253 0.06001120 0 0 0 0
0.01931460 -0.06396504 0.03101565 0 0 0 0
0.04855709 -0.01784440 0.08059043 0 0 0 0
0.01217472 -0.06658117 0.01214030 0 0 0 0
0.04987991 0.10201154 0.01258463 0 0 0 0
-0.04815503 0.18454701 0.00193963 0 0 0 0
0.05702986 0.10589232 0.03556027 0 0 0 0
0.05588495 0.06134486 0.05208468 0 0 0 0
-0.02773111 0.09111562 0.08978310 0 0 0 0
-0.04511155 0.13353311 -0.02556836 0 0 0 0
-0.02826068 0.11146300 0.08154708 0 0 0 0
0.03186078 0.04151420 0.10313534 0 0 0 0
-0.00808541 0.04116253 -0.00038664 0 0 0 0
0.05653880 0.05310294 0.05236007 0 0 0 0
0.03164699 0.02112836 -0.00038746 0 0 0 0
-0.01912940 0.08336978 0.09605630 0 0 0 0
0.05510577 -0.01887320 0.06233488 0 0 0 0
0.01221408 -0.06535584 0.03201804 0 0 0 0
0.02031789 0.04073936 0.10828576 0 0 0 0
0.05330942 0.05139741 0.07208264 0 0 0 0
-0.04533696 0.08104994 0.08008185 0 0 0 0
0.05708722 0.04832028 0.05146134 0 0 0 0
-0.04796640 0.06155402 0.08224019 0 0 0 0
-0.04174464 -0.03127162 0.08508122 0 0 0 0
-0.03808262 0.18454634 -0.02790858 0 0 0 0
0.05550893 0.09156182 0.05199100 0 0 0 0
-0.04414890 0.09008159 0.07835762 0 0 0 0
-0.01821289 0.06147774 0.10373619 0 0 0 0
-0.00802843 -0.00850037 -0.00038861 0 0 0 0
0.03113253 0.14242059 -0.04621214 0 0 0 0
0.02207632 0.00159887 0.10984614 0 0 0 0
-0.02538114 0.09552942 -0.00367184 0 0 0 0
0.00992735 0.18101656 0.06757247 0 0 0 0
0.05183306 0.00156034 -0.00038818 0 0 0 0
0.00204624 0.14938596 -0.06158720 0 0 0 0
0.02098974 -0.00761661 0.10854896 0 0 0 0
-0.04224091 0.16342743 0.05641404 0 0 0 0
0.02201276 0.17175373 0.06538305 0 0 0 0
-0.05558345 0.08176655 0.05237069 0 0 0 0
0.04018501 0.15113918 0.05972349 0 0 0 0
-0.06025029 -0.00867929 0.05203569 0 0 0 0
0.04840718 0.17120942 0.04889289 0 0 0 0
0.02170911 0.03138475 0.10937176 0 0 0 0
0.05489179 0.03150671 0.07217644 0 0 0 0
-0.06358320 -0.02432177 0.00271772 0 0 0 0
0.05933721 0.03169819 0.05209773 0 0 0 0
-0.04042968 -0.01943097 0.09440394 0 0 0 0
0.03381798 0.01154692 0.10530241 0 0 0 0
-0.04701040 -0.04800494 0.03212228 0 0 0 0
0.04863616 0.06111804 0.08029649 0 0 0 0
-0.05734255 -0.02840316 0.04222582 0 0 0 0
0.06408641 0.17156254 0.02229892 0 0 0 0
0.06112203 0.00157089 0.05209566 0 0 0 0
-0.05299930 0.11486223 0.05685130 0 0 0 0
0.01191961 0.18454611 -0.03791924 0 0 0 0
0.04980208 -0.04653149 0.00284215 0 0 0 0
-0.03879481 0.14199466 0.06388470 0 0 0 0
-0.05840536 0.18335760 -0.02776063 0 0 0 0
0.06392592 0.15151013 0.01202137 0 0 0 0
-0.01765141 0.12369017 -0.03631139 0 0 0 0
0.05796074 0.14146529 0.03952906 0 0 0 0
-0.06438516 0.02117321 0.02184436 0 0 0 0
0.04354099 0.10210419 0.07335037 0 0 0 0
0.01869747 -0.04400181 0.08754915 0 0 0 0
0.03050005 -0.03594976 0.08953199 0 0 0 0
0.04005041 0.00171325 0.10048402 0 0 0 0
0.03105430 0.16194333 -0.05580009 0 0 0 0
-0.01810000 0.18454766 0.03204338 0 0 0 0
0.04143487 0.14134234 0.06119661 0 0 0 0
-0.02680852 -0.02638897 0.09893786 0 0 0 0
0.04278481 0.13186190 0.06293556 0 0 0 0
0.05730700 -0.01578994 0.05835405 0 0 0 0
-0.02458162 0.18040282 -0.06326047 0 0 0 0
0.04902770 -0.02788784 0.07166748 0 0 0 0
0.05729914 0.04082099 0.05940431 0 0 0 0
0.03997502 0.12089197 0.06962650 0 0 0 0
-0.05941535 0.17136116 -0.02802766 0 0 0 0
-0.01804367 -0.05778789 0.06221212 0 0 0 0
-0.04374404 0.15565553 -0.04337025 0 0 0 0
0.05150361 0.10162905 0.06224415 0 0 0 0
-0.00799740 0.01141422 0.11396341 0 0 0 0
0.01178814 -0.05898412 0.06205458 0 0 0 0
0.05796487 -0.00778285 0.06053936 0 0 0 0
-0.03807831 -0.02855594 -0.00038941 0 0 0 0
0.04623836 -0.04268066 0.05570135 0 0 0 0
-0.03347257 0.15641032 -0.05314765 0 0 0 0
0.03195414 0.18454701 0.00196534 0 0 0 0
0.06403875 0.02182240 0.01206668 0 0 0 0
0.01995657 0.14432898 -0.05439406 0 0 0 0
0.03191488 -0.04801762 0.07211215 0 0 0 0
0.02191189 -0.05653328 0.06216471 0 0 0 0
0.05375787 0.08147970 0.06223156 0 0 0 0
0.05657251 0.03336954 0.06571815 0 0 0 0
0.04087307 0.06119550 0.09130824 0 0 0 0
0.02899484 0.15368870 -0.05422645 0 0 0 0
-0.05830933 0.04149162 0.03212050 0 0 0 0
0.05584381 0.12003800 0.01075936 0 0 0 0
0.00786833 -0.06357707 0.04766615 0 0 0 0
0.04536921 -0.04104957 0.06305371 0 0 0 0
0.04096763 -0.04710490 0.06174769 0 0 0 0
-0.05165192 0.07156233 0.03019124 0 0 0 0
0.03197499 0.13150157 0.07138231 0 0 0 0
-0.05534958 0.03972945 0.00306296 0 0 0 0
0.04763690 0.12544371 -0.01387424 0 0 0 0
0.04747900 -0.03492235 0.06847193 0 0 0 0
-0.03631408 0.17151971 0.05925773 0 0 0 0
-0.04473060 0.06004054 0.01496020 0 0 0 0
0.03045108 0.14098954 0.06902557 0 0 0 0
0.05869656 0.01182788 0.06198276 0 0 0 0
0.04578893 -0.01971654 0.08487371 0 0 0 0
0.05856331 0.00182285 0.06166529 0 0 0 0
-0.01807021 -0.01866644 -0.00038907 0 0 0 0
-0.02859826 0.13092665 -0.03851480 0 0 0 0
0.04985028 -0.00842525 0.08198550 0 0 0 0
0.02161030 0.18346287 0.06211352 0 0 0 0
-0.03821105 0.18454656 -0.01808045 0 0 0 0
0.05280552 0.09165073 0.06217895 0 0 0 0
-0.03803210 0.07128641 0.09122156 0 0 0 0
0.01139881 0.13133085 0.07930120 0 0 0 0
0.04865361 -0.03657549 0.06133110 0 0 0 0
-0.00798805 0.00159707 0.11325398 0 0 0 0
0.01070978 -0.04469785 0.08857763 0 0 0 0
-0.02906947 -0.06167979 0.01242472 0 0 0 0
-0.01926099 0.05264099 0.10602265 0 0 0 0
-0.03796482 -0.03850562 -0.00038970 0 0 0 0
-0.02714946 0.08262260 0.00549023 0 0 0 0
0.06690172 -0.00358516 0.01771816 0 0 0 0
-0.06076402 0.14151293 0.03201259 0 0 0 0
-0.04524673 -0.04608903 0.05162798 0 0 0 0
0.02280439 0.14040115 -0.04992022 0 0 0 0
-0.03411857 0.08539333 0.00644452 0 0 0 0
0.04781486 0.00210883 0.08888691 0 0 0 0
0.04807960 0.02133445 0.08911152 0 0 0 0
-0.05825979 0.01151223 -0.00038778 0 0 0 0
0.05699660 0.02063156 0.06768934 0 0 0 0
-0.01813116 -0.03853673 -0.00038972 0 0 0 0
0.06358680 -0.01837065 0.00192470 0 0 0 0
-0.03919147 0.11052037 -0.00897464 0 0 0 0
0.01982484 0.16073054 0.06811266 0 0 0 0
0.03266604 0.12214366 0.07428174 0 0 0 0
0.05707216 0.01162029 0.06788275 0 0 0 0
0.04696323 0.05678597 0.01683133 0 0 0 0
0.04191615 -0.01846026 0.09243413 0 0 0 0
0.00187565 0.04114691 -0.00038666 0 0 0 0
0.05702666 0.00422103 0.06751430 0 0 0 0
-0.00791994 0.09414690 -0.00478781 0 0 0 0
0.05738658 0.03763724 0.01355290 0 0 0 0
0.02115257 0.07127307 0.00614625 0 0 0 0
-0.03808710 0.18454769 0.03198259 0 0 0 0
0.04886814 0.09096183 0.07048592 0 0 0 0
-0.01756675 0.09478299 -0.00441130 0 0 0 0
0.04527247 0.09247876 0.07508334 0 0 0 0
0.05504298 0.06163923 0.06220580 0 0 0 0
0.02197691 -0.03859965 -0.00038967 0 0 0 0
-0.02820691 0.18454657 -0.01803730 0 0 0 0
-0.04225115 -0.05270312 0.03302987 0 0 0 0
-0.04504920 0.05113396 0.08979320 0 0 0 0
0.06000851 0.17163540 0.03228602 0 0 0 0
-0.04457123 0.14391303 -0.03477155 0 0 0 0
-0.05703547 0.13151558 0.00178738 0 0 0 0
0.05110341 0.07160775 0.07227797 0 0 0 0
0.05848211 -0.01809427 0.05163735 0 0 0 0
-0.04639084 0.07124331 0.08181672 0 0 0 0
0.02177457 0.18454590 -0.04806089 0 0 0 0
0.02185433 0.06149306 0.10233658 0 0 0 0
0.03287235 0.15074711 -0.04976988 0 0 0 0
-0.00810522 0.03158911 0.11261716 0 0 0 0
0.02219751 0.01149426 0.11054600 0 0 0 0
0.03751330 -0.03411017 0.08770882 0 0 0 0
0.06727094 0.18149498 0.00951965 0 0 0 0
0.00193636 0.11763603 -0.03139986 0 0 0 0
0.04927016 0.05143593 0.08165925 0 0 0 0
0.04633019 0.05275464 0.08626940 0 0 0 0
0.04229270 0.05162662 0.09236597 0 0 0 0
0.04951806 0.11231596 0.00262778 0 0 0 0
-0.03600376 -0.01752356 0.09877858 0 0 0 0
-0.02813811 -0.01845502 0.10231520 0 0 0 0
-0.01360758 0.13686779 0.07717840 0 0 0 0
0.04453304 0.12224502 0.06452264 0 0 0 0
0.03560654 -0.02176996 0.09626792 0 0 0 0
-0.00820596 0.18454725 0.01215865 0 0 0 0
0.04017074 0.02152745 0.10058607 0 0 0 0
-0.00807397 0.03118696 -0.00038700 0 0 0 0
0.05227117 0.06168730 0.07223406 0 0 0 0
-0.01808553 -0.04841801 -0.00039008 0 0 0 0
0.01943962 0.12923259 0.07807175 0 0 0 0
0.03807166 0.04907788 0.09774118 0 0 0 0
-0.06422065 0.16254631 -0.00724791 0 0 0 0
0.05770431 0.12374315 0.01389990 0 0 0 0
0.06051010 0.02165209 0.05214807 0 0 0 0
0.02184610 0.18454748 0.02213851 0 0 0 0
0.02200448 0.14146708 0.07268535 0 0 0 0
0.02201555 0.11157665 0.08377571 0 0 0 0
0.06067231 -0.01844510 0.04216847 0 0 0 0
-0.06691492 -0.00828258 0.01211671 0 0 0 0
-0.05274731 0.08322375 0.06605362 0 0 0 0
-0.05721228 0.04129075 0.02218144 0 0 0 0
0.05322962 0.12144471 0.00185233 0 0 0 0
-0.04938034 0.16112237 -0.03846972 0 0 0 0
0.06129370 -0.02863070 0.01213399 0 0 0 0
-0.01986659 0.17228559 0.06634797 0 0 0 0
0.01233643 0.07200475 0.00493944 0 0 0 0
0.02188343 0.18454616 -0.03791971 0 0 0 0
0.04586737 0.11402498 0.06602290 0 0 0 0
-0.02800754 0.04119378 -0.00038671 0 0 0 0
0.05007216 0.11126683 0.06168031 0 0 0 0
0.06182206 0.18339187 0.02196628 0 0 0 0
0.05500207 0.00143917 0.07236481 0 0 0 0
-0.04371175 0.11843821 0.06776622 0 0 0 0
0.02165249 0.07105983 0.09937438 0 0 0 0
0.03289719 0.00130531 0.10504097 0 0 0 0
0.02179249 0.02165689 0.11033041 0 0 0 0
0.04734872 0.04029252 0.08791905 0 0 0 0
0.03186351 0.18454771 0.03198761 0 0 0 0
-0.03745952 0.15200061 -0.04702431 0 0 0 0
-0.01395934 0.17937338 0.06729592 0 0 0 0
0.04247553 0.08162282 0.08235477 0 0 0 0
-0.06270784 -0.02217804 0.02390346 0 0 0 0
-0.05018984 0.08160218 0.07228220 0 0 0 0
0.05696023 0.04723408 0.05735236 0 0 0 0
0.05582397 0.05168176 0.06222510 0 0 0 0
0.02304763 0.13259050 0.07542966 0 0 0 0
-0.03434028 0.05910411 0.09783580 0 0 0 0
0.02195531 0.09135012 0.09167985 0 0 0 0
-0.04792539 0.14149892 -0.02783603 0 0 0 0
-0.05933553 0.13157848 0.01182420 0 0 0 0
0.04791919 0.07051860 0.07884117 0 0 0 0
0.04549533 0.06212438 0.08513189 0 0 0 0
0.04139977 0.06121954 0.01303914 0 0 0 0
0.03019894 0.06089564 0.09895603 0 0 0 0
-0.05731743 0.15140714 -0.01795103 0 0 0 0
0.05146642 0.01151110 0.08222518 0 0 0 0
0.03261090 -0.02920465 0.09356111 0 0 0 0
0.04031537 0.01152058 0.10078842 0 0 0 0
0.05953436 0.17172734 -0.02749663 0 0 0 0
0.02197350 0.18454653 -0.01809886 0 0 0 0
0.03764434 0.10688417 0.07752026 0 0 0 0
0.05089464 0.03152410 0.08227646 0 0 0 0
0.06337464 0.00157595 0.04226502 0 0 0 0
-0.03845133 0.08153682 0.01151683 0 0 0 0
0.05098706 0.00158025 0.08215062 0 0 0 0
0.05464587 0.15172908 0.04347782 0 0 0 0
0.06456106 -0.00846888 0.03194639 0 0 0 0
-0.06425865 0.17228357 -0.01662074 0 0 0 0
0.06029348 0.16161212 0.03199742 0 0 0 0
-0.03802750 0.18454680 -0.00802601 0 0 0 0
0.05424994 0.09147855 0.03188137 0 0 0 0
0.02236995 0.08205692 0.09505380 0 0 0 0
0.04767935 0.03098155 0.08869654 0 0 0 0
-0.03787721 0.02123741 -0.00038758 0 0 0 0
-0.02801016 0.06144878 0.10018562 0 0 0 0
0.04410061 -0.00868564 0.09280819 0 0 0 0
0.04745409 -0.00671626 0.08796394 0 0 0 0
0.05823150 0.15265431 -0.01643301 0 0 0 0
-0.03688503 0.18224330 -0.05557612 0 0 0 0
0.05079469 0.09152368 0.02196469 0 0 0 0
0.01171954 0.02142082 0.11302310 0 0 0 0
0.03174748 0.08141209 0.09090510 0 0 0 0
-0.05470829 0.13274945 -0.00668293 0 0 0 0
0.05439113 0.07162089 0.06216725 0 0 0 0
0.04381993 0.04178517 0.09271763 0 0 0 0
0.05721850 -0.03401816 0.02970091 0 0 0 0
-0.01797600 0.12152285 0.08163486 0 0 0 0
0.00158869 -0.06509064 0.04193914 0 0 0 0
0.04494146 0.01158549 0.09424143 0 0 0 0
-0.04825339 0.00171734 -0.00038816 0 0 0 0
0.04798846 0.01156206 0.08930483 0 0 0 0
-0.05448769 0.13119085 0.04949243 0 0 0 0
0.05476019 0.07147793 0.04223407 0 0 0 0
0.04473933 0.07166795 0.01963049 0 0 0 0
0.04492116 0.15219136 0.05501373 0 0 0 0
0.03239056 0.03173626 0.10465056 0 0 0 0
0.03900948 0.04111961 0.09886783 0 0 0 0
0.06234224 0.18404683 0.01243413 0 0 0 0
0.04378579 -0.02891330 0.08260802 0 0 0 0
0.03476395 0.06264952 0.09569565 0 0 0 0
0.02450576 -0.04223360 0.08575612 0 0 0 0
0.00170250 -0.03856784 -0.00038973 0 0 0 0
0.02507235 -0.01023888 0.10625739 0 0 0 0
-0.04232483 -0.00999082 0.09622550 0 0 0 0
0.05715868 0.17434701 -0.03345440 0 0 0 0
0.02199087 0.18454637 -0.02791068 0 0 0 0
0.04162130 0.11126892 0.07174352 0 0 0 0
0.03185761 0.18454748 0.02221539 0 0 0 0
-0.01799311 0.18370551 0.06262814 0 0 0 0
0.04644532 0.08460245 0.07634506 0 0 0 0
0.04378185 0.15079287 -0.03929841 0 0 0 0
-0.01805415 0.01150484 0.11207908 0 0 0 0
0.02924666 -0.02536799 0.09828144 0 0 0 0
0.02171537 -0.03806071 0.09176061 0 0 0 0
-0.00800537 -0.02860313 -0.00038928 0 0 0 0
0.02277846 -0.05132503 0.07320046 0 0 0 0
0.03811327 0.12910303 0.06814618 0 0 0 0
0.04446121 0.03180235 0.09359434 0 0 0 0
-0.04659745 0.15197869 -0.03709505 0 0 0 0
0.05589201 0.10133129 0.03175161 0 0 0 0
0.02942201 -0.05454086 0.06027313 0 0 0 0
-0.01232936 0.08581335 0.09696916 0 0 0 0
-0.01734610 0.13038625 0.07854161 0 0 0 0
-0.01930060 0.13929588 -0.05082762 0 0 0 0
-0.05546793 -0.01841088 0.06189000 0 0 0 0
-0.02250404 0.04544275 0.10689797 0 0 0 0
-0.00812571 0.18454681 -0.00807003 0 0 0 0
0.02125104 -0.02770166 0.10008675 0 0 0 0
0.00177595 0.18454768 0.03204417 0 0 0 0
0.05658696 -0.03278172 0.03498353 0 0 0 0
-0.00811036 0.18454562 -0.05813958 0 0 0 0
0.01232650 0.15102336 -0.06055890 0 0 0 0
0.01178395 -0.04846486 -0.00039012 0 0 0 0
0.00208745 0.12719910 -0.04208198 0 0 0 0
-0.00816564 0.18454704 0.00199496 0 0 0 0
0.02425182 -0.03182973 0.09591723 0 0 0 0
0.04687595 0.08657788 0.01785630 0 0 0 0
0.05832447 0.02161043 0.06217078 0 0 0 0
-0.05242582 0.15820727 -0.03193856 0 0 0 0
0.05817694 -0.02672957 0.04165753 0 0 0 0
0.03947143 0.07088615 0.08964298 0 0 0 0
0.00204831 0.13710792 -0.05221951 0 0 0 0
0.02829838 0.02125914 0.10783867 0 0 0 0
-0.04862306 0.12142844 -0.00799842 0 0 0 0
-0.05874963 0.02171399 -0.00010267 0 0 0 0
0.03194774 0.05142060 0.10063405 0 0 0 0
0.05162631 0.03140185 -0.00038706 0 0 0 0
-0.04814342 0.18454771 0.03210185 0 0 0 0
0.04227808 -0.04892714 0.05210368 0 0 0 0
0.02085499 0.10042201 0.08866230 0 0 0 0
