ply
format ascii 1.0
comment https://github.com/mikedh/trimesh
element vertex 1143
property float x
property float y
property float z
property uchar red
property uchar green
property uchar blue
property uchar alpha
end_header
-0.01830823 0.03128995 0.00006710 0 0 0 0
0.04140127 0.02123943 0.00006694 0 0 0 0
0.02153205 0.02110342 0.00006688 0 0 0 0
-0.00827176 0.02089940 0.00006694 0 0 0 0
-0.04872061 0.01163465 0.00006675 0 0 0 0
-0.05868123 0.01152953 0.00006682 0 0 0 0
0.05130262 0.01138170 0.00006677 0 0 0 0
0.04138755 0.01131383 0.00006684 0 0 0 0
0.00172724 0.01104234 0.00006676 0 0 0 0
-0.00818784 0.01097446 0.00006679 0 0 0 0
-0.02831845 0.01101971 0.00006677 0 0 0 0
-0.03843387 0.01144645 0.00006673 0 0 0 0
0.04137387 0.00142717 0.00006664 0 0 0 0
0.03147824 0.00135943 0.00006668 0 0 0 0
0.02158262 0.00129169 0.00006668 0 0 0 0
-0.00810425 0.00108847 0.00006672 0 0 0 0
-0.01829393 0.00092059 0.00006672 0 0 0 0
-0.03879410 0.00105075 0.00006670 0 0 0 0
0.02160775 -0.00855599 0.00006652 0 0 0 0
-0.00844059 0.04086703 0.00006723 0 0 0 0
0.01173150 -0.00862359 0.00006639 0 0 0 0
-0.01858232 -0.00872473 0.00006654 0 0 0 0
-0.02867132 -0.00890016 0.00006650 0 0 0 0
0.03147247 0.01124595 0.00006686 0 0 0 0
-0.03854757 -0.00896777 0.00006653 0 0 0 0
-0.00838609 -0.01857066 0.00006633 0 0 0 0
-0.01869108 -0.01864120 0.00006636 0 0 0 0
0.03149000 -0.01874237 0.00006639 0 0 0 0
0.02163392 -0.01880983 0.00006637 0 0 0 0
0.01184173 -0.01851896 0.00006634 0 0 0 0
-0.02842522 -0.02847893 0.00006621 0 0 0 0
-0.04818678 -0.02867905 0.00006628 0 0 0 0
0.04133195 -0.02888781 0.00006627 0 0 0 0
0.03149597 -0.02895514 0.00006627 0 0 0 0
-0.00870589 -0.02875020 0.00006625 0 0 0 0
-0.01852175 -0.02877912 0.00006624 0 0 0 0
-0.00865812 -0.03895962 0.00006614 0 0 0 0
-0.01854124 -0.03894108 0.00006614 0 0 0 0
-0.02829734 -0.03865232 0.00006611 0 0 0 0
0.01182525 -0.04857553 0.00006602 0 0 0 0
-0.00857444 -0.04865085 0.00006602 0 0 0 0
0.05123500 -0.00879959 0.00006653 0 0 0 0
-0.01837221 -0.04871792 0.00006600 0 0 0 0
-0.02816997 -0.04878499 0.00006595 0 0 0 0
0.00129059 -0.05867520 0.00006589 0 0 0 0
-0.00848731 -0.05874213 0.00006590 0 0 0 0
-0.01826522 -0.05880906 0.00006585 0 0 0 0
0.00131100 -0.06366309 0.05460416 0 0 0 0
-0.02296913 -0.05351435 0.06492925 0 0 0 0
0.03573586 -0.05333180 0.05443116 0 0 0 0
0.00161264 -0.03349042 0.08486234 0 0 0 0
-0.00955842 -0.03307851 0.08460115 0 0 0 0
-0.03201920 -0.02274029 0.08445954 0 0 0 0
0.00174399 -0.01259239 0.09462842 0 0 0 0
0.04631611 -0.00315036 0.08493414 0 0 0 0
-0.01337904 0.01630690 0.10500390 0 0 0 0
0.01528740 0.01684417 0.10482274 0 0 0 0
0.01595328 0.03664020 0.11486512 0 0 0 0
0.03630075 0.05693398 0.11476099 0 0 0 0
-0.01830766 0.07111201 0.26268712 0 0 0 0
0.00869252 0.06979360 0.26548851 0 0 0 0
0.01306830 0.07190425 0.26419374 0 0 0 0
0.00633721 0.07591386 0.26504460 0 0 0 0
0.00150543 0.07110476 0.26601830 0 0 0 0
-0.00720474 0.07043123 0.26566711 0 0 0 0
-0.00444024 0.07645542 0.26519570 0 0 0 0
0.00012021 0.07664492 0.26523328 0 0 0 0
0.06148810 -0.00867446 0.00007496 0 0 0 0
0.00145238 -0.06730279 0.00170077 0 0 0 0
-0.00841654 -0.06699463 0.00177543 0 0 0 0
0.00161841 -0.06800583 0.01981048 0 0 0 0
-0.02396081 -0.06391182 0.02005572 0 0 0 0
-0.02394341 -0.06393659 0.03054473 0 0 0 0
-0.02351618 -0.06383394 0.03550310 0 0 0 0
0.03148400 -0.00848838 0.00006652 0 0 0 0
-0.06341790 -0.02451693 0.04425031 0 0 0 0
-0.06352071 -0.02413559 0.04513440 0 0 0 0
0.01129293 -0.06532035 0.04966279 0 0 0 0
0.00153659 -0.06623759 0.04979717 0 0 0 0
-0.01194321 -0.06332351 0.05391545 0 0 0 0
0.00779838 -0.06401575 0.05553450 0 0 0 0
-0.00650164 -0.06401843 0.05577248 0 0 0 0
0.00125359 -0.06419575 0.05593304 0 0 0 0
0.01153777 -0.06029690 0.06034076 0 0 0 0
-0.00864874 -0.06080978 0.06034873 0 0 0 0
-0.02433358 -0.05423304 0.06511862 0 0 0 0
0.00135963 -0.06094078 0.06098120 0 0 0 0
0.01103489 -0.05567993 0.06708530 0 0 0 0
-0.00828840 -0.05597218 0.06725550 0 0 0 0
0.01175927 -0.05053068 0.07190607 0 0 0 0
-0.02396242 -0.04425368 0.07529338 0 0 0 0
0.00157272 -0.05099647 0.07261052 0 0 0 0
-0.00866913 -0.05081497 0.07220066 0 0 0 0
0.01095365 -0.04557595 0.07647339 0 0 0 0
0.00153175 -0.04601130 0.07685923 0 0 0 0
-0.00820613 -0.04590856 0.07663551 0 0 0 0
0.02220155 -0.03074595 0.08349066 0 0 0 0
0.01262726 -0.03264291 0.08440179 0 0 0 0
0.03540070 0.00747578 0.09456176 0 0 0 0
0.00907369 -0.03413744 0.08519890 0 0 0 0
0.01175944 -0.03881606 0.08077300 0 0 0 0
0.00164622 -0.03871696 0.08173903 0 0 0 0
-0.00838293 -0.03884768 0.08124448 0 0 0 0
-0.00954604 -0.03416665 0.08519490 0 0 0 0
0.02761195 -0.02475129 0.08530406 0 0 0 0
0.02062505 -0.02627118 0.08625274 0 0 0 0
-0.01779589 -0.02684836 0.08665393 0 0 0 0
-0.00832753 -0.02821346 0.08737445 0 0 0 0
-0.01837294 -0.01880672 0.09028480 0 0 0 0
0.01230458 -0.01159862 0.09421651 0 0 0 0
0.00149279 -0.01896388 0.09207755 0 0 0 0
-0.00894050 -0.01219224 0.09440280 0 0 0 0
0.04134607 -0.01867490 0.00006637 0 0 0 0
0.02142055 0.00161284 0.09759991 0 0 0 0
-0.04842382 -0.00903538 0.00006655 0 0 0 0
0.01109265 -0.00684174 0.09636745 0 0 0 0
0.00134378 -0.00775747 0.09670983 0 0 0 0
-0.00810749 -0.00730971 0.09653240 0 0 0 0
-0.01820954 0.00117663 0.09828979 0 0 0 0
-0.00844406 0.00125308 0.09984406 0 0 0 0
-0.01847373 0.01103333 0.10201297 0 0 0 0
-0.01980209 0.01796197 0.10429911 0 0 0 0
0.03145499 0.04114012 0.00006718 0 0 0 0
0.00132509 0.00131743 0.10024767 0 0 0 0
0.03144911 0.05118382 0.00006727 0 0 0 0
0.00155725 0.00991321 0.10362557 0 0 0 0
-0.00891002 0.01047754 0.10339019 0 0 0 0
-0.00713386 0.01511574 0.10559055 0 0 0 0
-0.00838347 0.02114334 0.10808232 0 0 0 0
-0.00864812 0.03007049 0.11273971 0 0 0 0
0.00978529 0.03495723 0.11576834 0 0 0 0
0.01339685 0.04729271 0.12401407 0 0 0 0
0.00910719 0.04559987 0.12518135 0 0 0 0
0.00170821 0.04114021 0.12113988 0 0 0 0
0.00087596 0.04572168 0.12576558 0 0 0 0
-0.01423816 0.05582587 0.13585716 0 0 0 0
-0.01448320 0.06644327 0.00283179 0 0 0 0
-0.00830268 0.06744325 0.00254663 0 0 0 0
0.01142026 0.06717487 0.00269500 0 0 0 0
0.00159297 -0.04852040 0.00006603 0 0 0 0
-0.00850137 0.06748296 0.00985494 0 0 0 0
0.01137489 0.06719567 0.00976792 0 0 0 0
-0.00858682 0.06746682 0.01986692 0 0 0 0
0.00152818 0.06807678 0.01985662 0 0 0 0
-0.01058610 0.06596462 0.03416708 0 0 0 0
0.00157339 0.06793790 0.02971473 0 0 0 0
0.01132048 0.06699069 0.02925594 0 0 0 0
0.01359153 0.06594890 0.03270598 0 0 0 0
-0.00699009 0.06666423 0.04042794 0 0 0 0
0.00158257 0.06705892 0.03984548 0 0 0 0
0.00927172 0.06659469 0.04046458 0 0 0 0
0.01390775 0.06586141 0.03942310 0 0 0 0
-0.01294433 0.06617580 0.04655085 0 0 0 0
-0.00837545 0.06725433 0.05018362 0 0 0 0
0.00159781 0.06781008 0.05001529 0 0 0 0
0.00160886 0.06951389 0.06017795 0 0 0 0
0.00161638 0.07197675 0.07028842 0 0 0 0
-0.00477333 0.07630740 0.08501983 0 0 0 0
-0.01092540 0.07579869 0.08632222 0 0 0 0
0.00162509 0.07822043 0.09033379 0 0 0 0
0.00162855 0.08153114 0.10033063 0 0 0 0
0.00088034 0.08627462 0.11502401 0 0 0 0
-0.03256761 0.07566137 0.11726965 0 0 0 0
0.00160994 0.08773313 0.12013817 0 0 0 0
0.05133589 0.02130744 0.00006702 0 0 0 0
0.00159414 0.09042066 0.13003300 0 0 0 0
0.00154941 0.09277475 0.13996208 0 0 0 0
0.00164986 0.09599728 0.15644468 0 0 0 0
0.00863230 0.09647997 0.16299143 0 0 0 0
0.00116118 0.09678215 0.16141103 0 0 0 0
-0.01442268 0.09648103 0.17350833 0 0 0 0
-0.02839967 0.04164183 0.00006723 0 0 0 0
0.01683788 0.09629545 0.17500542 0 0 0 0
0.00129886 0.09783881 0.17020333 0 0 0 0
0.01773680 0.09654183 0.18127462 0 0 0 0
0.00128077 0.09863233 0.18023236 0 0 0 0
0.02340474 0.09546290 0.18994513 0 0 0 0
0.01857699 0.09677498 0.19006827 0 0 0 0
0.00135670 0.09904908 0.19023263 0 0 0 0
0.01144920 0.09822708 0.18999234 0 0 0 0
-0.04273001 0.08595596 0.19997984 0 0 0 0
-0.02171867 0.09572288 0.19993035 0 0 0 0
0.01898335 0.09680636 0.19967958 0 0 0 0
0.01166508 0.09818176 0.19998828 0 0 0 0
0.00132074 0.09899119 0.19996235 0 0 0 0
-0.04297580 0.08589693 0.21082765 0 0 0 0
-0.02023632 0.09551679 0.21057940 0 0 0 0
0.01785641 0.09651010 0.20883881 0 0 0 0
0.01156354 0.09750091 0.20992175 0 0 0 0
-0.01435704 0.09636994 0.21612008 0 0 0 0
0.01039927 0.09681142 0.21797030 0 0 0 0
0.01288637 0.09572043 0.22223529 0 0 0 0
0.02138876 0.09437746 0.21999931 0 0 0 0
-0.00977041 0.09584709 0.22288083 0 0 0 0
0.00219809 0.09612537 0.22466753 0 0 0 0
-0.03823168 0.03156684 0.00006713 0 0 0 0
0.03822764 0.08690044 0.22802848 0 0 0 0
-0.03392345 0.08642087 0.23511085 0 0 0 0
0.02488637 -0.04306455 0.07435134 0 0 0 0
-0.02836101 0.09003834 0.23003392 0 0 0 0
-0.01849830 0.09297199 0.22988896 0 0 0 0
0.02160837 0.09247115 0.22998160 0 0 0 0
0.00180676 0.09505193 0.23009112 0 0 0 0
-0.03819393 -0.03878592 0.00006603 0 0 0 0
0.01152388 0.09438941 0.22990736 0 0 0 0
0.03343013 0.08485011 0.24133703 0 0 0 0
-0.02403750 0.08631838 0.24529386 0 0 0 0
0.02156604 0.08946039 0.23994786 0 0 0 0
0.00183709 0.09228165 0.23962493 0 0 0 0
0.01181776 0.09143477 0.23987313 0 0 0 0
0.04141505 0.03120421 0.00006706 0 0 0 0
0.00187085 0.08851839 0.24865186 0 0 0 0
0.01149322 0.08795290 0.24832724 0 0 0 0
0.02218939 0.08399137 0.25143772 0 0 0 0
-0.00885708 0.08530673 0.25369167 0 0 0 0
0.00188119 0.08572934 0.25396687 0 0 0 0
-0.00839851 0.07913724 0.26222923 0 0 0 0
-0.02835092 -0.05969025 0.00124036 0 0 0 0
-0.04859376 0.00126016 0.00006670 0 0 0 0
0.01419499 -0.06314088 0.05383774 0 0 0 0
-0.01882918 0.06220739 0.00116355 0 0 0 0
-0.03736278 -0.05647572 0.00202497 0 0 0 0
-0.04765920 -0.04786497 0.00211734 0 0 0 0
0.01489854 0.05674708 0.13436738 0 0 0 0
-0.04895940 -0.03922514 0.00041123 0 0 0 0
-0.05943284 -0.02872660 0.00135972 0 0 0 0
-0.06379815 -0.02427297 0.00268644 0 0 0 0
-0.06515376 -0.01859022 0.00217320 0 0 0 0
-0.06722121 0.00131203 0.00175715 0 0 0 0
0.00185526 -0.00869120 0.00006643 0 0 0 0
-0.03594385 0.05767411 0.00264867 0 0 0 0
-0.06666673 0.01117982 0.00197633 0 0 0 0
-0.01692880 -0.04503526 0.07607001 0 0 0 0
-0.05882927 0.02177210 0.00033230 0 0 0 0
-0.05563154 0.03896527 0.00255157 0 0 0 0
-0.04919911 0.04208714 0.00102498 0 0 0 0
-0.04659235 0.04917480 0.00239980 0 0 0 0
-0.02307999 -0.06347235 0.00755974 0 0 0 0
-0.00861077 -0.06754497 0.00986478 0 0 0 0
-0.01929948 0.06510788 0.00986383 0 0 0 0
-0.01454714 0.06645621 0.00964796 0 0 0 0
-0.03595078 0.05778385 0.00983152 0 0 0 0
-0.02879685 -0.06163036 0.01003264 0 0 0 0
0.00135849 -0.05595965 0.06780194 0 0 0 0
-0.03770119 -0.05667967 0.01013300 0 0 0 0
-0.04251099 -0.05302975 0.00985008 0 0 0 0
-0.05169059 0.04414314 0.01003199 0 0 0 0
0.05161502 -0.02881742 0.00006629 0 0 0 0
-0.04672916 0.04942332 0.00995912 0 0 0 0
-0.01842807 0.05095864 0.00006739 0 0 0 0
-0.04797302 -0.04817090 0.01014892 0 0 0 0
-0.05277545 -0.04280924 0.00972069 0 0 0 0
-0.05630412 -0.03809259 0.01012192 0 0 0 0
0.02133865 0.07817112 0.25932857 0 0 0 0
-0.06530568 -0.01887199 0.00987256 0 0 0 0
0.01146180 0.05104700 0.00006733 0 0 0 0
-0.06811910 0.00106943 0.00986841 0 0 0 0
0.01150720 0.04100358 0.00006722 0 0 0 0
-0.06726677 0.01117843 0.00995706 0 0 0 0
-0.06311260 0.02531069 0.01070244 0 0 0 0
-0.05575880 0.03920403 0.01017378 0 0 0 0
0.01176038 -0.02872183 0.00006629 0 0 0 0
-0.01485847 0.06648404 0.01990837 0 0 0 0
-0.01936245 0.06511643 0.02010849 0 0 0 0
-0.01840060 -0.06558267 0.02000866 0 0 0 0
0.01976956 0.08710185 0.24685486 0 0 0 0
-0.03574270 0.05784734 0.01993215 0 0 0 0
-0.02837754 0.06173255 0.02012862 0 0 0 0
-0.02897870 -0.06156674 0.02016903 0 0 0 0
-0.03791823 -0.05653429 0.02005168 0 0 0 0
-0.04672559 0.04929423 0.02010110 0 0 0 0
-0.04778935 -0.04824411 0.01995863 0 0 0 0
-0.05573304 0.03925214 0.01995357 0 0 0 0
-0.05170243 0.04416953 0.02013226 0 0 0 0
-0.05273812 -0.04295836 0.02035451 0 0 0 0
-0.05627452 -0.03800289 0.02004694 0 0 0 0
-0.06137954 -0.02913133 0.01995076 0 0 0 0
-0.06307941 0.02538583 0.01967207 0 0 0 0
-0.01826398 0.08999935 0.23990688 0 0 0 0
-0.06047830 0.03132271 0.02015978 0 0 0 0
-0.06361407 -0.02451220 0.03048811 0 0 0 0
-0.06811178 0.00140793 0.02007508 0 0 0 0
-0.01428959 0.06661999 0.02913804 0 0 0 0
0.01151295 -0.05860522 0.00006587 0 0 0 0
-0.01934208 0.06488191 0.03011730 0 0 0 0
-0.02857517 0.06150424 0.03008879 0 0 0 0
-0.03581804 0.05764161 0.02972244 0 0 0 0
-0.02894860 -0.06156729 0.03015282 0 0 0 0
-0.03747194 -0.05663096 0.02992836 0 0 0 0
-0.04669432 0.04929474 0.02994860 0 0 0 0
-0.05149912 0.04429731 0.03011809 0 0 0 0
-0.04780459 -0.04805949 0.03000494 0 0 0 0
-0.06293034 0.02559515 0.02976631 0 0 0 0
-0.06041108 0.03139966 0.03006063 0 0 0 0
-0.05572551 0.03917743 0.02999986 0 0 0 0
-0.06720600 0.01136901 0.03000096 0 0 0 0
-0.06744698 -0.00880818 0.03025682 0 0 0 0
-0.01833567 0.06446972 0.04007457 0 0 0 0
-0.01814971 -0.06534377 0.04002067 0 0 0 0
-0.02842149 0.06088813 0.04003932 0 0 0 0
-0.03535860 0.05745537 0.04026394 0 0 0 0
-0.01684670 -0.06468891 0.04830609 0 0 0 0
-0.02852323 -0.06142189 0.04000174 0 0 0 0
-0.02854803 -0.01870868 0.00006635 0 0 0 0
-0.03751820 -0.05633764 0.03984936 0 0 0 0
-0.04230623 -0.05278151 0.04070121 0 0 0 0
-0.04766089 -0.04788185 0.03998213 0 0 0 0
-0.05258280 -0.04258707 0.04024907 0 0 0 0
-0.00827449 -0.00886608 0.00006649 0 0 0 0
-0.06293897 0.02534796 0.03983061 0 0 0 0
-0.05998377 0.03135329 0.04011881 0 0 0 0
-0.06328750 -0.02329464 0.03983647 0 0 0 0
-0.03066550 0.08520796 0.24213044 0 0 0 0
-0.06119235 -0.01928979 0.06066907 0 0 0 0
0.03010709 0.07876131 0.12047067 0 0 0 0
-0.06704989 -0.00870290 0.04015395 0 0 0 0
-0.06781405 0.00130938 0.04001253 0 0 0 0
-0.06690127 0.01124039 0.04000308 0 0 0 0
-0.00855723 0.09801915 0.17996910 0 0 0 0
-0.01997481 -0.06257305 0.05171121 0 0 0 0
-0.04687425 -0.04719829 0.04974826 0 0 0 0
0.02165999 -0.02902247 0.00006619 0 0 0 0
-0.05172808 0.04415046 0.05000395 0 0 0 0
0.03388779 0.07140552 0.25277716 0 0 0 0
-0.02851375 0.06087144 0.22013845 0 0 0 0
0.05357235 0.04157308 0.07002307 0 0 0 0
-0.05557590 -0.03691374 0.04971370 0 0 0 0
0.04819414 0.04791538 0.01002647 0 0 0 0
-0.06006998 0.03136873 0.05007211 0 0 0 0
-0.06488036 0.02093314 0.02998214 0 0 0 0
0.03183344 0.06083044 0.19026552 0 0 0 0
-0.06008065 -0.02888091 0.05015939 0 0 0 0
-0.05683591 -0.01834487 0.06938477 0 0 0 0
0.02832581 0.07749130 0.11159360 0 0 0 0
-0.06650344 -0.00881957 0.04984929 0 0 0 0
-0.06728832 0.00130255 0.04987481 0 0 0 0
-0.06651302 0.01149558 0.05009079 0 0 0 0
0.03788336 0.07471846 0.14971428 0 0 0 0
-0.01714210 0.06729654 0.06081209 0 0 0 0
-0.00823458 0.09777213 0.20995080 0 0 0 0
-0.01848014 -0.05879102 0.06028963 0 0 0 0
-0.04511254 -0.04534800 0.05788420 0 0 0 0
-0.00864883 0.09844415 0.19993898 0 0 0 0
-0.01713643 -0.05501992 0.06649324 0 0 0 0
-0.03827281 0.06089344 0.23028852 0 0 0 0
0.03196519 0.09090638 0.17996207 0 0 0 0
-0.06391653 -0.01559292 0.05674439 0 0 0 0
0.05449875 -0.04053139 0.03014906 0 0 0 0
-0.04714660 0.04991923 0.06020444 0 0 0 0
-0.01879242 -0.04961959 0.07115271 0 0 0 0
0.04801975 0.04788244 0.01979206 0 0 0 0
-0.05970266 0.03129950 0.06000615 0 0 0 0
-0.06466544 0.02043405 0.04012327 0 0 0 0
0.03159839 0.06088755 0.24031265 0 0 0 0
-0.05710012 -0.02851983 0.05997768 0 0 0 0
-0.06280205 -0.01090286 0.06360660 0 0 0 0
-0.06566168 0.00128988 0.05998206 0 0 0 0
-0.06533160 0.01118247 0.06012980 0 0 0 0
0.03511679 0.06826121 0.17668791 0 0 0 0
-0.02856324 0.06090738 0.23013084 0 0 0 0
0.05157023 0.04130869 0.08000193 0 0 0 0
-0.05438058 -0.03513235 0.05750855 0 0 0 0
-0.06355429 0.01712799 0.06546470 0 0 0 0
-0.06395076 0.00213168 0.06618522 0 0 0 0
-0.04602438 -0.03646450 0.06768698 0 0 0 0
-0.04485838 0.08100991 0.19036767 0 0 0 0
-0.06481308 -0.00817299 0.05924063 0 0 0 0
0.03151469 0.06086741 0.21022917 0 0 0 0
-0.05470040 -0.02603837 0.06688037 0 0 0 0
-0.06390659 0.01064866 0.06645861 0 0 0 0
0.03161341 0.06026778 0.02018180 0 0 0 0
-0.06415220 0.01909258 0.05915031 0 0 0 0
0.01933243 0.06706936 0.06112479 0 0 0 0
-0.03890711 -0.03921864 0.07080396 0 0 0 0
0.05444632 -0.04060693 0.04011829 0 0 0 0
-0.04712976 0.05099815 0.07008358 0 0 0 0
-0.05815742 0.03127344 0.07009672 0 0 0 0
-0.04523381 -0.02586458 0.07614397 0 0 0 0
-0.04239820 -0.01200800 0.08440084 0 0 0 0
-0.05516934 0.03092185 0.07875006 0 0 0 0
-0.03575752 -0.01612878 0.08605748 0 0 0 0
-0.02842307 -0.01842360 0.08777156 0 0 0 0
-0.03814553 -0.00851648 0.08795100 0 0 0 0
-0.00788292 0.06487189 0.16072977 0 0 0 0
-0.01889574 0.06498767 0.04974046 0 0 0 0
-0.03014064 -0.00094137 0.09399033 0 0 0 0
-0.02835544 -0.00880788 0.09170359 0 0 0 0
-0.04747418 0.01155928 0.08836617 0 0 0 0
-0.04003532 0.01037752 0.09315017 0 0 0 0
-0.02697423 0.00256843 0.09645870 0 0 0 0
-0.03578675 0.01249218 0.09626859 0 0 0 0
0.03166826 0.06019229 0.05008955 0 0 0 0
-0.06458560 0.02031670 0.04987383 0 0 0 0
0.02215307 0.07380255 0.08983576 0 0 0 0
-0.04270417 -0.04293374 0.06385709 0 0 0 0
0.06737623 -0.00869752 0.02023233 0 0 0 0
0.03177533 0.06980669 0.14997523 0 0 0 0
0.00959009 0.06329155 0.26576075 0 0 0 0
-0.02481307 0.07674881 0.10324816 0 0 0 0
0.03150165 -0.03868470 0.00006604 0 0 0 0
0.02168482 -0.03875191 0.00006608 0 0 0 0
0.05432642 -0.04082392 0.02006092 0 0 0 0
-0.04692638 0.04932303 0.05017141 0 0 0 0
-0.05839481 0.00134718 0.00006671 0 0 0 0
0.05699170 0.03700983 0.03030580 0 0 0 0
-0.01796661 0.02252500 0.10690966 0 0 0 0
-0.01710128 0.08728726 0.24717684 0 0 0 0
-0.06054553 0.03121186 0.01007182 0 0 0 0
-0.03850416 0.03124962 0.10032421 0 0 0 0
0.02148109 0.04107185 0.00006721 0 0 0 0
-0.01867775 0.09474077 0.22010879 0 0 0 0
-0.03415795 0.03513505 0.10549245 0 0 0 0
0.04688800 -0.00568686 0.08515623 0 0 0 0
-0.04400085 0.05906672 0.09893703 0 0 0 0
-0.01372302 0.06196041 0.26521727 0 0 0 0
0.04586361 0.04175264 0.09374689 0 0 0 0
-0.04189268 0.05075572 0.10244644 0 0 0 0
0.03753343 0.05681533 0.02964678 0 0 0 0
-0.01005171 0.08569098 0.11685351 0 0 0 0
0.03747522 0.05684166 0.04023584 0 0 0 0
0.02540544 0.08577561 0.13766447 0 0 0 0
-0.00868593 0.08381981 0.11000072 0 0 0 0
-0.04662004 0.04929796 0.04006531 0 0 0 0
-0.03853026 -0.04903239 0.06018899 0 0 0 0
-0.02768034 0.03208141 0.10770961 0 0 0 0
-0.02077347 0.03785026 0.11407553 0 0 0 0
0.06724585 -0.00794261 0.04922159 0 0 0 0
-0.02639374 0.07788429 0.11090429 0 0 0 0
0.02897156 0.06468199 0.13852642 0 0 0 0
-0.03192944 0.04805710 0.11378269 0 0 0 0
-0.02549411 0.04447589 0.11634785 0 0 0 0
0.03871837 0.07140140 0.12977277 0 0 0 0
-0.03015400 -0.04190524 0.07353324 0 0 0 0
-0.00866700 0.07413683 0.07993899 0 0 0 0
-0.01827345 0.06230091 0.26137117 0 0 0 0
-0.03740234 0.05148348 0.10990382 0 0 0 0
0.03957376 0.02175990 0.09696826 0 0 0 0
-0.01791298 0.04203032 0.11837969 0 0 0 0
0.02728410 0.08679334 0.14313422 0 0 0 0
-0.04407887 0.03240079 0.09569674 0 0 0 0
-0.04100944 0.06104299 0.11017878 0 0 0 0
-0.00854439 0.07128254 0.07010809 0 0 0 0
-0.01843044 0.06090651 0.24988352 0 0 0 0
-0.03451497 0.05470609 0.11656351 0 0 0 0
-0.01898026 0.08399619 0.11972905 0 0 0 0
0.02774157 0.06590670 0.14609322 0 0 0 0
0.02183353 0.06441282 0.04993336 0 0 0 0
-0.02831740 0.05144499 0.11985229 0 0 0 0
0.02148373 0.06840538 0.07031263 0 0 0 0
-0.03542053 -0.03531367 0.07616270 0 0 0 0
0.01715095 0.06642945 0.05402264 0 0 0 0
0.06750784 -0.00873807 0.03996568 0 0 0 0
-0.02825058 0.07947000 0.12021799 0 0 0 0
0.02129114 0.06233997 0.00147729 0 0 0 0
-0.02509345 0.05501246 0.12662601 0 0 0 0
-0.03386685 0.07677006 0.12237709 0 0 0 0
-0.04464423 -0.00536420 0.08571367 0 0 0 0
-0.03249734 0.07238567 0.25435290 0 0 0 0
-0.04820952 0.03110071 0.09027754 0 0 0 0
-0.03722485 0.06162733 0.11980474 0 0 0 0
0.03941654 0.05859960 0.07040493 0 0 0 0
-0.03806475 0.07144482 0.12026230 0 0 0 0
-0.01648379 0.09704577 0.19012132 0 0 0 0
-0.00832622 0.05115046 0.13008118 0 0 0 0
-0.02167901 0.08535703 0.12840196 0 0 0 0
0.03128646 0.01151866 0.09794147 0 0 0 0
-0.01775497 0.05299123 0.12880887 0 0 0 0
0.04002800 0.08806945 0.20986266 0 0 0 0
-0.01742730 0.08766662 0.13073073 0 0 0 0
-0.03899455 0.05213813 0.00101317 0 0 0 0
-0.02025871 0.05753322 0.13300565 0 0 0 0
0.01748354 0.08644689 0.12439827 0 0 0 0
-0.03513297 0.06446411 0.12803340 0 0 0 0
0.00126588 0.03456865 0.11630614 0 0 0 0
0.02897388 0.07079862 0.25682124 0 0 0 0
-0.02859933 0.08200730 0.13006777 0 0 0 0
0.04225523 0.05315444 0.04003990 0 0 0 0
-0.03115793 0.06748490 0.14125082 0 0 0 0
-0.00868733 0.09208694 0.14004646 0 0 0 0
-0.01845765 0.06074304 0.13990672 0 0 0 0
-0.05891984 0.03097457 0.00171343 0 0 0 0
-0.01863371 0.08941804 0.14007695 0 0 0 0
0.04255085 0.05285832 0.03004697 0 0 0 0
-0.02903806 0.06850775 0.15006179 0 0 0 0
-0.00869723 0.09422079 0.15005130 0 0 0 0
0.00137916 0.01469845 0.10565091 0 0 0 0
-0.03780865 0.02171404 0.09796027 0 0 0 0
-0.02706404 0.06407589 0.13920149 0 0 0 0
0.00173724 0.02950292 0.11304554 0 0 0 0
-0.02962436 0.08392771 0.13950725 0 0 0 0
0.03994539 0.08812661 0.20010489 0 0 0 0
-0.01505367 0.08658689 0.12352335 0 0 0 0
-0.02481040 0.06562531 0.14756289 0 0 0 0
0.01158676 0.02143548 0.10769883 0 0 0 0
-0.06278756 -0.02205624 0.05147602 0 0 0 0
0.04324182 0.05361779 0.05988893 0 0 0 0
-0.02832691 0.06944855 0.16015075 0 0 0 0
-0.00958932 0.09559134 0.15896271 0 0 0 0
-0.01809381 0.06421763 0.14902340 0 0 0 0
-0.01865919 0.09161156 0.14995386 0 0 0 0
0.03743889 0.07539809 0.15981013 0 0 0 0
-0.02191157 0.06678352 0.15334845 0 0 0 0
0.06745636 -0.00881959 0.01009675 0 0 0 0
-0.03164631 0.08509186 0.14880848 0 0 0 0
0.00179474 0.06081833 0.19996664 0 0 0 0
0.04929888 -0.04654270 0.03011131 0 0 0 0
-0.02701450 0.08816192 0.15066029 0 0 0 0
-0.02292335 -0.06346833 0.02820123 0 0 0 0
0.06664418 -0.01376980 0.04588401 0 0 0 0
-0.00656942 0.09653319 0.16278927 0 0 0 0
-0.02281490 -0.06350347 0.01685992 0 0 0 0
-0.00842137 0.09720611 0.17012687 0 0 0 0
-0.01639786 0.06568204 0.15983447 0 0 0 0
-0.00747027 0.04578083 0.12591358 0 0 0 0
-0.01846194 0.09353674 0.15994671 0 0 0 0
0.03782638 0.07459828 0.17109463 0 0 0 0
-0.02011343 0.06685688 0.16064885 0 0 0 0
0.03965271 0.07167363 0.18048765 0 0 0 0
0.03364666 0.03021051 0.10319903 0 0 0 0
-0.02782387 -0.03764302 0.07761399 0 0 0 0
-0.02106225 0.06682377 0.16641337 0 0 0 0
-0.06109424 0.02125070 0.07031558 0 0 0 0
-0.03166728 0.05781673 0.12300523 0 0 0 0
0.02313588 0.03893920 0.11347670 0 0 0 0
-0.01872666 0.09487258 0.16970477 0 0 0 0
-0.00835904 0.04129758 0.12054200 0 0 0 0
-0.02150200 0.09572913 0.18976119 0 0 0 0
0.00162530 0.06091929 0.25007108 0 0 0 0
0.04931001 -0.04648456 0.02005166 0 0 0 0
-0.02840336 0.09244898 0.18001950 0 0 0 0
-0.06727618 0.01119724 0.01987598 0 0 0 0
-0.05288611 0.02131831 0.08442251 0 0 0 0
-0.04819661 0.02142908 0.00006691 0 0 0 0
-0.03638023 0.08831906 0.18036558 0 0 0 0
-0.03660325 0.06232955 0.18151903 0 0 0 0
0.00169561 0.06091142 0.24004984 0 0 0 0
-0.02870167 0.09308906 0.18997672 0 0 0 0
-0.00859171 0.08969767 0.13006771 0 0 0 0
0.03784373 0.05698803 0.00280974 0 0 0 0
0.02070975 0.07790691 0.10087893 0 0 0 0
-0.04253165 0.07028545 0.18650046 0 0 0 0
0.05790279 -0.03570924 0.04016526 0 0 0 0
-0.03759307 0.08872062 0.19025069 0 0 0 0
0.04131849 -0.03861751 0.00006612 0 0 0 0
-0.04505628 0.06267568 0.19214401 0 0 0 0
0.00127952 0.09490874 0.14994331 0 0 0 0
-0.04505217 0.07171606 0.19122337 0 0 0 0
0.00155465 0.06088526 0.23025727 0 0 0 0
0.04949007 -0.04658351 0.03992042 0 0 0 0
-0.02865714 0.09328535 0.20008282 0 0 0 0
0.05785177 -0.03556139 0.02993692 0 0 0 0
-0.03817214 0.08883617 0.19996451 0 0 0 0
-0.06749433 -0.00889578 0.00988254 0 0 0 0
-0.04638195 0.08175444 0.20011455 0 0 0 0
0.04931704 -0.04661188 0.01024586 0 0 0 0
0.00164022 0.06087373 0.22013363 0 0 0 0
-0.02833266 0.09299970 0.21000005 0 0 0 0
0.05780388 -0.03571437 0.01987193 0 0 0 0
-0.03799974 0.08880433 0.20987992 0 0 0 0
-0.06672477 -0.00858207 0.00172087 0 0 0 0
-0.04757668 0.08166882 0.20988841 0 0 0 0
-0.04205361 0.08559879 0.22117907 0 0 0 0
0.06665272 -0.01424067 0.03064253 0 0 0 0
-0.03756139 0.08823068 0.21955743 0 0 0 0
0.06665536 -0.01439107 0.03768137 0 0 0 0
-0.03587851 0.08739969 0.22861132 0 0 0 0
-0.05840391 -0.00893201 0.00006655 0 0 0 0
-0.04742014 0.08169883 0.21982713 0 0 0 0
0.05126949 0.00149490 0.00006663 0 0 0 0
-0.04030764 0.08465937 0.23057674 0 0 0 0
0.02958424 0.03258853 0.10691730 0 0 0 0
-0.03928082 0.08107217 0.24067686 0 0 0 0
0.03688554 0.05614387 0.11587219 0 0 0 0
-0.04471127 0.07834361 0.23742740 0 0 0 0
-0.04234958 0.07156496 0.24359584 0 0 0 0
0.03056163 0.08864682 0.16041094 0 0 0 0
-0.02753773 0.07093923 0.25804621 0 0 0 0
-0.01810291 0.01090659 0.00006676 0 0 0 0
-0.05128930 0.04135063 0.08036602 0 0 0 0
0.03158063 -0.06015585 0.02019305 0 0 0 0
-0.05695094 0.01134163 0.07913414 0 0 0 0
0.02237875 -0.05975851 0.00060976 0 0 0 0
-0.03595781 -0.04557570 0.06712171 0 0 0 0
-0.03160066 0.02863725 0.10401153 0 0 0 0
0.02021910 -0.06481817 0.00228947 0 0 0 0
0.04971691 0.02129773 0.08801574 0 0 0 0
0.01500289 0.06672336 0.16405448 0 0 0 0
0.03192905 0.07163156 0.10004641 0 0 0 0
0.05179993 0.04133550 0.00176134 0 0 0 0
0.01808813 0.07674170 0.09375788 0 0 0 0
0.03767062 0.05704490 0.00999582 0 0 0 0
-0.03679575 0.07154198 0.13938028 0 0 0 0
-0.06353778 -0.00407542 0.06562001 0 0 0 0
0.03618507 0.08543433 0.16615942 0 0 0 0
-0.04374997 0.08156295 0.18390816 0 0 0 0
0.05716611 0.03710930 0.00298686 0 0 0 0
0.01168700 0.00122395 0.00006669 0 0 0 0
-0.01432623 0.03506390 0.11567260 0 0 0 0
0.05983103 0.03074377 0.00225181 0 0 0 0
0.06226751 0.02112154 0.00153061 0 0 0 0
-0.03967676 0.08185531 0.17013367 0 0 0 0
0.06723003 0.00968668 0.00275432 0 0 0 0
-0.01916604 -0.03146417 0.08395801 0 0 0 0
0.06797296 0.00126632 0.00284164 0 0 0 0
0.06673120 -0.01404588 0.00287184 0 0 0 0
0.01143547 0.07890636 0.26185149 0 0 0 0
0.06082303 -0.02857566 0.00193230 0 0 0 0
-0.00836077 0.09849273 0.18992293 0 0 0 0
-0.02237603 -0.06345712 0.04130942 0 0 0 0
0.05781968 -0.03585569 0.00277851 0 0 0 0
-0.02726901 0.08784425 0.23864479 0 0 0 0
0.05225232 -0.03919644 0.00118910 0 0 0 0
0.04917046 -0.04645595 0.00225407 0 0 0 0
0.04210842 -0.04942021 0.00103703 0 0 0 0
-0.05152751 0.04400204 0.03989122 0 0 0 0
-0.03464108 -0.05455506 0.05625426 0 0 0 0
-0.02770225 -0.05626894 0.05895530 0 0 0 0
-0.05193319 0.04393877 0.07017237 0 0 0 0
0.03178243 -0.05999952 0.01005895 0 0 0 0
0.02509779 -0.06311700 0.01038616 0 0 0 0
0.01164653 -0.06693940 0.00986215 0 0 0 0
0.01629354 0.06618888 0.01962645 0 0 0 0
0.03178275 0.06015848 0.01000868 0 0 0 0
0.03304384 0.07355213 0.10959367 0 0 0 0
0.05327923 0.04203409 0.01016986 0 0 0 0
0.03761795 0.05687073 0.01976464 0 0 0 0
0.02168441 0.08320017 0.12001312 0 0 0 0
-0.03797163 0.07087446 0.13006489 0 0 0 0
0.05711247 0.03706413 0.01006905 0 0 0 0
-0.00824301 0.06734467 0.02931317 0 0 0 0
0.06027609 0.03127341 0.00997024 0 0 0 0
0.06447732 0.02121818 0.01004156 0 0 0 0
0.06633046 0.01492041 0.00952106 0 0 0 0
0.05443497 -0.04075262 0.01015689 0 0 0 0
0.01186799 -0.03881912 0.00006618 0 0 0 0
0.04410285 -0.05167720 0.00986918 0 0 0 0
0.06798425 0.00112902 0.01008218 0 0 0 0
-0.01858829 -0.06554115 0.00992046 0 0 0 0
0.03919301 -0.05543748 0.00244625 0 0 0 0
-0.04905313 -0.03924437 0.06053455 0 0 0 0
0.06525135 -0.01930406 0.01010789 0 0 0 0
0.01167786 0.08524174 0.25347236 0 0 0 0
0.01893155 -0.06438434 0.04757075 0 0 0 0
0.06163852 -0.02882612 0.00994942 0 0 0 0
-0.04820291 0.07120978 0.19989617 0 0 0 0
0.02184949 0.06450614 0.02004054 0 0 0 0
0.02175065 0.08018455 0.11001445 0 0 0 0
-0.03552280 0.07414678 0.16007872 0 0 0 0
0.05709284 0.03694097 0.01960174 0 0 0 0
0.04422144 -0.05144218 0.01999307 0 0 0 0
0.01141748 0.00136538 0.09951630 0 0 0 0
-0.02575898 -0.02517486 0.08576075 0 0 0 0
0.03926226 -0.05555481 0.02011158 0 0 0 0
0.06016102 0.03143471 0.02009862 0 0 0 0
0.05028953 0.07127710 0.21988437 0 0 0 0
-0.01830529 0.06083236 0.22002234 0 0 0 0
-0.04222017 0.05535304 0.06907485 0 0 0 0
0.06437957 0.02123615 0.01993192 0 0 0 0
-0.04818767 0.03149868 0.00006707 0 0 0 0
0.04019698 -0.00791112 0.08713235 0 0 0 0
-0.03590095 0.05765734 0.05014860 0 0 0 0
-0.06503005 -0.01856589 0.03982487 0 0 0 0
-0.05260241 0.03174325 0.08340038 0 0 0 0
-0.02840612 0.01122569 0.09904700 0 0 0 0
-0.01428623 0.01552642 0.10569181 0 0 0 0
0.06634630 0.01489024 0.01973218 0 0 0 0
0.03141293 -0.05894369 0.00170410 0 0 0 0
-0.01820948 -0.06553011 0.00211702 0 0 0 0
0.03916079 -0.05559590 0.01028381 0 0 0 0
-0.05267540 -0.04289559 0.03035730 0 0 0 0
0.06517266 -0.01938275 0.02027201 0 0 0 0
0.00146815 0.05097859 0.00006729 0 0 0 0
0.06155679 -0.02886898 0.01997877 0 0 0 0
-0.05034492 0.07106653 0.20975055 0 0 0 0
0.02164684 0.06431799 0.03007513 0 0 0 0
-0.04623535 0.05134314 0.09014758 0 0 0 0
0.01063766 0.09709956 0.17038141 0 0 0 0
0.01994014 -0.06490401 0.02997385 0 0 0 0
-0.00835601 0.03086351 0.00006711 0 0 0 0
0.04408206 -0.05155364 0.02982840 0 0 0 0
0.06289416 -0.01888065 0.00134765 0 0 0 0
0.03924774 -0.05549772 0.03012208 0 0 0 0
0.03530023 0.06886726 0.13178676 0 0 0 0
0.05314719 0.04209968 0.03005754 0 0 0 0
-0.02866527 0.02080489 0.10240703 0 0 0 0
-0.06363969 -0.02422246 0.01815760 0 0 0 0
0.06001888 0.03155042 0.03009454 0 0 0 0
0.04861482 0.07093722 0.23001125 0 0 0 0
-0.01846206 0.06089409 0.23029879 0 0 0 0
-0.04148186 0.05459483 0.05957229 0 0 0 0
0.06421106 0.02152173 0.02999735 0 0 0 0
-0.03834956 0.06104853 0.08015023 0 0 0 0
-0.02827568 0.03163498 0.00006704 0 0 0 0
0.06628991 0.01474270 0.03027103 0 0 0 0
0.06144679 -0.02900987 0.02998684 0 0 0 0
-0.01576025 0.07689498 0.09315002 0 0 0 0
0.06790147 0.00117287 0.03018244 0 0 0 0
0.06515149 -0.01925708 0.03028756 0 0 0 0
0.02134373 0.06389021 0.04011816 0 0 0 0
-0.00719014 0.03486788 0.11605443 0 0 0 0
-0.01815249 0.07840315 0.10047220 0 0 0 0
0.06793890 0.00139725 0.02026191 0 0 0 0
0.01178665 -0.06665056 0.04006368 0 0 0 0
-0.01831624 0.02104607 0.00006691 0 0 0 0
-0.04715316 0.05155503 0.07991880 0 0 0 0
0.01148937 0.09776174 0.18002260 0 0 0 0
0.01975236 -0.06480270 0.03995682 0 0 0 0
0.03146666 0.02117142 0.00006688 0 0 0 0
-0.03840498 -0.01877615 0.00006636 0 0 0 0
0.04413706 -0.05158617 0.04005311 0 0 0 0
0.00323740 0.08610662 0.11518531 0 0 0 0
0.03912720 -0.05555571 0.03984917 0 0 0 0
0.00159820 0.03093165 0.00006704 0 0 0 0
0.05344593 0.04224032 0.04003067 0 0 0 0
-0.02526672 0.08707322 0.14172061 0 0 0 0
0.00173396 0.06086437 0.20977257 0 0 0 0
-0.01831557 -0.06560918 0.03003625 0 0 0 0
0.04734400 0.07980871 0.20096304 0 0 0 0
-0.03660379 0.07807752 0.24872468 0 0 0 0
0.06164449 -0.02879563 0.03995507 0 0 0 0
-0.04432918 0.04154200 0.09665503 0 0 0 0
0.03167019 -0.05988600 0.04001933 0 0 0 0
0.02496386 -0.06317466 0.01997662 0 0 0 0
0.02935129 0.06293172 0.25696379 0 0 0 0
0.00156099 0.06085351 0.19007537 0 0 0 0
-0.02830520 0.08942555 0.16012713 0 0 0 0
0.03158952 -0.05830901 0.05015812 0 0 0 0
0.02246362 -0.06203732 0.05079326 0 0 0 0
0.04847715 0.04845909 0.05022652 0 0 0 0
-0.01291953 0.09604248 0.16681600 0 0 0 0
0.04262665 0.05311902 0.04998467 0 0 0 0
0.00910017 0.01528781 0.10541347 0 0 0 0
-0.05964010 -0.00894614 0.07047766 0 0 0 0
-0.05616313 -0.03795664 0.03005544 0 0 0 0
0.05342110 0.04245063 0.05001979 0 0 0 0
0.05402906 0.03156919 0.08069578 0 0 0 0
0.04289483 -0.05074871 0.05055217 0 0 0 0
0.01175254 0.06858946 0.06018284 0 0 0 0
0.06037699 0.03130746 0.05007416 0 0 0 0
-0.02839814 0.06143425 0.05015092 0 0 0 0
-0.06277278 0.02509196 0.05006262 0 0 0 0
-0.04257540 -0.05300944 0.02032571 0 0 0 0
0.05358545 -0.03982809 0.05055558 0 0 0 0
-0.00833308 -0.01881328 0.09180572 0 0 0 0
0.01170250 -0.06686038 0.03005320 0 0 0 0
0.06764503 0.00122461 0.04998507 0 0 0 0
0.01160043 -0.06649139 0.00181168 0 0 0 0
0.06684587 0.00204480 0.05668012 0 0 0 0
0.01132129 0.06717467 0.01988355 0 0 0 0
0.06474259 -0.01882303 0.04984840 0 0 0 0
-0.04525546 0.06236175 0.23889938 0 0 0 0
0.00140273 0.06106176 0.00006742 0 0 0 0
0.02148808 -0.05793227 0.06005137 0 0 0 0
0.01948364 -0.05465384 0.06612407 0 0 0 0
-0.03462388 0.06723312 0.09141500 0 0 0 0
0.02509700 -0.05307523 0.06414578 0 0 0 0
0.03278544 -0.05148345 0.06190635 0 0 0 0
0.06049996 0.03124521 0.04008628 0 0 0 0
-0.02876907 -0.02943588 0.08225604 0 0 0 0
-0.01862572 0.03128921 0.11110708 0 0 0 0
0.05856905 0.03093214 0.06968713 0 0 0 0
0.05609756 0.03477119 0.07333566 0 0 0 0
0.04105384 -0.04771195 0.05955806 0 0 0 0
0.02571938 0.06582002 0.06721742 0 0 0 0
0.02784841 0.06667949 0.07336247 0 0 0 0
-0.05606141 -0.03765344 0.03996114 0 0 0 0
-0.02842866 0.06088942 0.21031493 0 0 0 0
0.05364228 0.04235202 0.05998728 0 0 0 0
-0.05625520 -0.03770299 0.00221791 0 0 0 0
0.02470008 0.07524811 0.09829795 0 0 0 0
-0.03613261 0.07325009 0.17068414 0 0 0 0
-0.00815098 0.07770813 0.09071337 0 0 0 0
0.03838911 0.05778619 0.06050114 0 0 0 0
-0.02862171 0.06274899 0.06012752 0 0 0 0
0.03028525 0.05238084 0.11889738 0 0 0 0
-0.06261371 0.02360054 0.06078374 0 0 0 0
-0.04253159 -0.05302711 0.03018853 0 0 0 0
0.05080499 -0.03827909 0.05969188 0 0 0 0
-0.02019954 0.09543927 0.17963105 0 0 0 0
0.02077009 0.04298479 0.11768652 0 0 0 0
-0.06356101 -0.02429647 0.01063241 0 0 0 0
0.05995181 0.03128156 0.05997013 0 0 0 0
-0.06752320 -0.00863243 0.02000348 0 0 0 0
-0.03724197 0.07092670 0.24997088 0 0 0 0
-0.05391829 -0.01434163 0.07546647 0 0 0 0
0.04052927 0.05967201 0.08028629 0 0 0 0
-0.03734884 0.06992636 0.11032100 0 0 0 0
0.05701069 0.03676643 0.06689377 0 0 0 0
-0.05198101 0.04436769 0.06004154 0 0 0 0
0.02432327 0.06705870 0.16714041 0 0 0 0
0.06566872 0.00109917 0.06136731 0 0 0 0
0.01114539 0.06711535 0.05049987 0 0 0 0
0.06197946 -0.01882371 0.06016042 0 0 0 0
-0.01214124 0.06636206 0.16268508 0 0 0 0
0.05720568 0.02833563 0.07633451 0 0 0 0
0.03844505 -0.04498859 0.06631943 0 0 0 0
-0.04519602 0.07062660 0.23916014 0 0 0 0
0.02356227 0.06517063 0.05923264 0 0 0 0
0.03794035 0.06741057 0.10126477 0 0 0 0
-0.01924762 0.07446903 0.08937939 0 0 0 0
0.06706865 0.00984563 0.04946220 0 0 0 0
0.05710637 -0.02477023 0.06584660 0 0 0 0
-0.05551804 0.03918528 0.04000963 0 0 0 0
-0.03545767 0.04226253 0.10722885 0 0 0 0
0.03196681 0.06341579 0.06980131 0 0 0 0
0.02169149 -0.04905767 0.07059826 0 0 0 0
0.03220100 0.07926944 0.25114393 0 0 0 0
0.03717612 0.06650486 0.09401889 0 0 0 0
-0.01854261 0.07182379 0.08011466 0 0 0 0
0.06709300 0.01017295 0.02022165 0 0 0 0
0.05863485 -0.02745338 0.05918870 0 0 0 0
0.00172584 0.09714194 0.21926223 0 0 0 0
0.04136352 -0.03847397 0.06972504 0 0 0 0
0.02944631 0.06772430 0.08078454 0 0 0 0
-0.03770583 0.05947937 0.07035893 0 0 0 0
0.04734551 -0.02494889 0.07582667 0 0 0 0
0.06633650 0.01550399 0.04004377 0 0 0 0
-0.03169601 0.06539743 0.07842810 0 0 0 0
0.04400728 -0.03110835 0.07340379 0 0 0 0
-0.01846250 0.06904498 0.07009354 0 0 0 0
0.06707608 0.00991453 0.03004667 0 0 0 0
0.05153365 -0.01913314 0.00006639 0 0 0 0
0.00180044 0.05047371 0.13012691 0 0 0 0
0.06062805 -0.02886132 0.05018168 0 0 0 0
-0.01538941 0.09684826 0.18100849 0 0 0 0
0.00177465 0.09826769 0.20975150 0 0 0 0
0.03805379 -0.03491900 0.07577854 0 0 0 0
0.01193101 0.07376881 0.07999486 0 0 0 0
0.06120045 0.02116694 0.07020674 0 0 0 0
0.04852442 0.04812552 0.03996857 0 0 0 0
-0.00824922 0.09170719 0.23990461 0 0 0 0
-0.02739135 0.06837653 0.08063205 0 0 0 0
-0.04070425 0.05433577 0.03018235 0 0 0 0
-0.01829185 0.06084766 0.17991795 0 0 0 0
0.05569540 -0.01115600 0.07427604 0 0 0 0
0.06437905 0.02139473 0.04997201 0 0 0 0
0.05381798 -0.01978339 0.07220172 0 0 0 0
0.02618880 0.06633184 0.14449781 0 0 0 0
0.06205894 0.00112546 0.07031195 0 0 0 0
0.03072341 -0.03676295 0.07706749 0 0 0 0
0.02162337 -0.03854721 0.07884372 0 0 0 0
0.03220892 0.07139442 0.16014704 0 0 0 0
0.01238846 0.06166044 0.26130340 0 0 0 0
-0.04796229 0.06134747 0.22028205 0 0 0 0
0.02183866 0.07093921 0.08011008 0 0 0 0
-0.05546248 0.03929352 0.05991716 0 0 0 0
0.01152923 0.06090047 0.25020006 0 0 0 0
0.03389864 0.06454471 0.07940871 0 0 0 0
-0.04097153 0.06312209 0.10017810 0 0 0 0
0.02900277 0.00348210 0.09613482 0 0 0 0
0.05092548 -0.02827970 0.06964017 0 0 0 0
0.06621861 0.01437382 0.05103334 0 0 0 0
0.04053350 -0.02784592 0.07778636 0 0 0 0
0.05389370 0.01104707 0.08242162 0 0 0 0
0.02139785 0.08874264 0.14026459 0 0 0 0
-0.03883095 0.06119403 0.18989052 0 0 0 0
0.05834098 0.01136225 0.07760572 0 0 0 0
0.02514763 0.06679104 0.15082932 0 0 0 0
0.05796175 0.00183159 0.07692355 0 0 0 0
-0.00847247 0.06890987 0.06018960 0 0 0 0
0.06464100 0.02138571 0.04003421 0 0 0 0
0.04955841 -0.01763994 0.07740616 0 0 0 0
-0.05184392 -0.02090010 0.07363400 0 0 0 0
0.01151535 0.04132335 0.11976746 0 0 0 0
-0.04798266 0.02136469 0.08967377 0 0 0 0
-0.03520260 0.08755484 0.17077602 0 0 0 0
0.03175627 -0.02890181 0.08132160 0 0 0 0
0.03166585 0.02125381 0.10114183 0 0 0 0
-0.01127424 0.07306853 0.26465285 0 0 0 0
0.03416648 -0.02143911 0.08410291 0 0 0 0
-0.06190072 0.01135478 0.07137148 0 0 0 0
0.06663796 0.01689432 0.04208153 0 0 0 0
0.03029877 -0.05559938 0.05816527 0 0 0 0
0.00164153 0.06079411 0.18004960 0 0 0 0
-0.02831185 0.09111659 0.16995968 0 0 0 0
0.01121968 0.07751662 0.09113207 0 0 0 0
0.03805538 0.07796754 0.24690655 0 0 0 0
0.02148580 0.06078012 0.18027358 0 0 0 0
-0.03294398 0.06737388 0.17543854 0 0 0 0
0.04544847 0.05480750 0.07951868 0 0 0 0
0.04198447 -0.01922902 0.08145666 0 0 0 0
0.05786568 -0.03579228 0.00973465 0 0 0 0
0.01349887 0.07563223 0.08703374 0 0 0 0
0.05458647 0.02137252 0.08201889 0 0 0 0
-0.05816222 -0.01894785 0.00006636 0 0 0 0
0.06357629 0.02127208 0.05993095 0 0 0 0
0.01131000 -0.02793672 0.08714037 0 0 0 0
0.05251541 0.00096666 0.08172002 0 0 0 0
-0.03080565 0.07473297 0.10911638 0 0 0 0
-0.00830217 0.06081203 0.17991742 0 0 0 0
0.04735952 -0.04455494 0.05681663 0 0 0 0
0.06031092 -0.00871324 0.06999146 0 0 0 0
-0.00846166 0.06086022 0.18994954 0 0 0 0
-0.03826294 -0.02854628 0.00006627 0 0 0 0
0.01161530 -0.06695133 0.01990751 0 0 0 0
0.06817917 0.00125647 0.04007421 0 0 0 0
-0.02279193 -0.04371169 0.07481417 0 0 0 0
0.05848629 -0.01785309 0.06805646 0 0 0 0
0.04927585 0.03118451 0.08903575 0 0 0 0
0.03092181 -0.01786259 0.08708575 0 0 0 0
-0.04699449 0.06142091 0.23007627 0 0 0 0
-0.03615418 0.07341884 0.14970650 0 0 0 0
0.02160545 -0.01883371 0.08944505 0 0 0 0
0.06198736 0.01194457 0.00054580 0 0 0 0
-0.02862353 0.00104849 0.00006671 0 0 0 0
-0.00823668 0.06332314 0.26598138 0 0 0 0
0.03145481 -0.00864777 0.09058767 0 0 0 0
0.02206457 -0.00931714 0.09323211 0 0 0 0
-0.02838151 0.06092416 0.24029598 0 0 0 0
0.04837534 0.04084092 0.08903259 0 0 0 0
-0.04224652 0.01944451 0.09432420 0 0 0 0
-0.04881892 -0.00900034 0.08156378 0 0 0 0
-0.03934747 0.06254319 0.08979566 0 0 0 0
0.05480037 -0.03092222 0.06194916 0 0 0 0
0.03282720 0.00040086 0.09330794 0 0 0 0
-0.02883071 0.07321882 0.09983112 0 0 0 0
0.04884238 -0.04586310 0.04947717 0 0 0 0
0.01178303 0.01094669 0.10316093 0 0 0 0
-0.00824983 0.06087661 0.19987929 0 0 0 0
-0.04458810 0.05787289 0.09040029 0 0 0 0
0.05151691 -0.00851647 0.07971495 0 0 0 0
0.02162285 0.06088191 0.23034483 0 0 0 0
0.04740939 0.04907178 0.08778438 0 0 0 0
-0.03299399 0.06654908 0.13478512 0 0 0 0
0.04585267 0.05234857 0.09106526 0 0 0 0
-0.05554458 0.03928027 0.05000428 0 0 0 0
0.03559087 0.06544968 0.08758913 0 0 0 0
0.01972108 0.08728296 0.13116832 0 0 0 0
0.04431386 -0.01027183 0.08380918 0 0 0 0
-0.03680976 0.05834712 0.06031481 0 0 0 0
0.04197356 0.01089026 0.09199644 0 0 0 0
0.03146084 0.03113607 0.00006706 0 0 0 0
0.04345501 0.07113381 0.24113800 0 0 0 0
0.02155739 0.01117808 0.00006679 0 0 0 0
-0.01818873 0.07838651 0.26049560 0 0 0 0
0.04959057 0.06178932 0.20998859 0 0 0 0
0.03136624 0.06925360 0.09036989 0 0 0 0
0.02145546 0.05111542 0.00006736 0 0 0 0
-0.02883090 0.06063877 0.13034451 0 0 0 0
0.02279231 0.01944565 0.10391422 0 0 0 0
-0.01860900 0.08119334 0.11006205 0 0 0 0
0.00159836 0.08463741 0.11015914 0 0 0 0
0.03832671 -0.05496937 0.04863887 0 0 0 0
-0.03036795 -0.05222069 0.06282800 0 0 0 0
0.02832023 0.02557100 0.10543425 0 0 0 0
0.03871529 0.07077721 0.24794509 0 0 0 0
0.00157268 -0.02875064 0.00006629 0 0 0 0
0.03889588 0.05210962 0.10859587 0 0 0 0
0.01187738 0.08336078 0.10995921 0 0 0 0
0.04145426 0.04111813 0.10019957 0 0 0 0
0.00160493 -0.03888937 0.00006616 0 0 0 0
-0.01145054 0.06602958 0.03882637 0 0 0 0
0.03759044 0.04318850 0.10601818 0 0 0 0
0.01312861 0.08541384 0.11771069 0 0 0 0
0.02124789 0.06242064 0.26052597 0 0 0 0
0.03155401 0.04140668 0.10983633 0 0 0 0
0.01190592 0.08022263 0.09994538 0 0 0 0
0.04161724 0.06082771 0.22018975 0 0 0 0
0.03397413 0.04963671 0.11250172 0 0 0 0
0.04825282 0.04793855 0.00271512 0 0 0 0
0.02767611 0.04492610 0.11593317 0 0 0 0
-0.03833291 0.00109508 0.09113833 0 0 0 0
-0.00843338 -0.06723735 0.03996230 0 0 0 0
0.01196091 0.08923772 0.13010067 0 0 0 0
0.00191890 -0.01850012 0.00006636 0 0 0 0
0.04110203 0.06111259 0.11020020 0 0 0 0
0.02150355 0.06087294 0.22032277 0 0 0 0
0.00149281 0.06789947 0.00241202 0 0 0 0
0.01935032 -0.04456478 0.07584698 0 0 0 0
0.04879452 0.04943920 0.07006019 0 0 0 0
0.02155091 0.06088056 0.25032723 0 0 0 0
0.04434279 0.05420154 0.06962945 0 0 0 0
-0.02846582 0.06166067 0.01007393 0 0 0 0
0.02242560 0.04953466 0.12204065 0 0 0 0
0.06157692 0.00153121 0.00006661 0 0 0 0
-0.00834687 -0.06752979 0.01979267 0 0 0 0
0.01144278 0.09379746 0.15000230 0 0 0 0
0.05323544 0.04202407 0.02007469 0 0 0 0
0.03504815 0.07468265 0.11920041 0 0 0 0
0.01205216 0.09536450 0.15932176 0 0 0 0
0.02745941 0.05529359 0.12619887 0 0 0 0
0.02045936 0.02338346 0.10650185 0 0 0 0
0.03948573 0.07010433 0.12039326 0 0 0 0
0.03150757 -0.04881581 0.00006591 0 0 0 0
0.02171068 -0.04888289 0.00006604 0 0 0 0
0.00165316 0.07479504 0.07985865 0 0 0 0
-0.05657367 0.00153975 0.07813770 0 0 0 0
0.02145072 0.07115544 0.26112169 0 0 0 0
-0.00836769 -0.06572898 0.04993954 0 0 0 0
0.01088500 0.08726460 0.12182670 0 0 0 0
0.03876497 0.06284630 0.11887400 0 0 0 0
-0.04021866 0.04075541 0.10163337 0 0 0 0
-0.03808855 0.02159955 0.00006691 0 0 0 0
0.03161869 0.06168719 0.06008510 0 0 0 0
-0.06808706 0.00108059 0.03018503 0 0 0 0
0.00949533 0.05539542 0.13599297 0 0 0 0
0.00140176 0.05526558 0.13652301 0 0 0 0
0.04546134 0.03072819 0.09367777 0 0 0 0
0.06672091 0.00753643 0.05577094 0 0 0 0
0.01164247 -0.01876770 0.09139126 0 0 0 0
0.04819057 0.04784973 0.03019510 0 0 0 0
-0.06137889 -0.02924076 0.01006712 0 0 0 0
0.02278038 0.05823531 0.13198873 0 0 0 0
0.05660145 -0.03424755 0.05536615 0 0 0 0
0.03848270 0.06272747 0.18270893 0 0 0 0
-0.00836001 -0.06751432 0.02998393 0 0 0 0
0.01180776 0.09164897 0.14018472 0 0 0 0
0.01170531 0.05920806 0.14030582 0 0 0 0
0.02015928 -0.06490742 0.00982803 0 0 0 0
-0.03586482 0.06859655 0.10060747 0 0 0 0
0.00152260 0.06805225 0.00983776 0 0 0 0
0.03100844 -0.04716872 0.06846420 0 0 0 0
-0.06142530 0.00090376 0.07121324 0 0 0 0
0.03730242 0.06533211 0.12679006 0 0 0 0
0.05755749 -0.03527632 0.04891818 0 0 0 0
0.03182414 0.06144437 0.18013602 0 0 0 0
-0.04424898 0.05106612 0.09757549 0 0 0 0
0.01999009 -0.06494527 0.01990141 0 0 0 0
-0.03905371 -0.04950683 0.00052843 0 0 0 0
-0.04775804 0.04111054 0.09036206 0 0 0 0
0.03182061 -0.05995120 0.03009963 0 0 0 0
0.02473689 -0.06314549 0.03027247 0 0 0 0
0.06730529 -0.00877962 0.03018130 0 0 0 0
0.03276456 0.06837437 0.14046870 0 0 0 0
-0.04878584 0.07119933 0.23036301 0 0 0 0
-0.00698407 0.05523353 0.13617155 0 0 0 0
-0.01664226 0.09707602 0.19981582 0 0 0 0
0.03796300 0.07828660 0.14040229 0 0 0 0
-0.01463903 0.06656660 0.05279667 0 0 0 0
0.03848425 0.07298141 0.13946445 0 0 0 0
0.01161942 0.06297590 0.14915718 0 0 0 0
0.04247579 0.05307907 0.01004684 0 0 0 0
0.02070174 0.06476529 0.14885725 0 0 0 0
0.01536551 0.06598946 0.04792903 0 0 0 0
0.02894887 0.08752792 0.15074758 0 0 0 0
-0.00825771 0.09466414 0.22977526 0 0 0 0
-0.02548108 0.06702731 0.07194580 0 0 0 0
-0.00873471 0.05870493 0.14062995 0 0 0 0
0.06472983 -0.00888293 0.06040696 0 0 0 0
-0.04041371 0.05412028 0.04000453 0 0 0 0
-0.01798271 0.06209885 0.16991277 0 0 0 0
0.02463260 -0.06306011 0.04019312 0 0 0 0
0.02160581 0.06090919 0.24023348 0 0 0 0
0.04819001 0.05003183 0.07989927 0 0 0 0
0.04301856 0.05094252 0.10033486 0 0 0 0
-0.02825564 0.06054329 0.00178823 0 0 0 0
0.02042085 0.05369827 0.12809052 0 0 0 0
-0.02395567 -0.06396239 0.00264963 0 0 0 0
0.04832614 0.06237414 0.20039833 0 0 0 0
0.00132614 0.07640390 0.08478919 0 0 0 0
0.01178583 0.06514440 0.16046572 0 0 0 0
0.02162545 0.09272009 0.16005099 0 0 0 0
0.01484538 0.09583398 0.16774213 0 0 0 0
-0.03380565 0.06040488 0.25536764 0 0 0 0
0.03164072 0.08925889 0.22986999 0 0 0 0
0.02326142 0.06725050 0.16054773 0 0 0 0
-0.04725559 0.06185837 0.20033881 0 0 0 0
0.03498919 0.08529254 0.15887070 0 0 0 0
-0.04614715 0.00196602 0.08696637 0 0 0 0
-0.02662010 0.06294283 0.17247945 0 0 0 0
0.04274383 0.05284682 0.02011789 0 0 0 0
0.01881273 0.06586502 0.15948801 0 0 0 0
0.03845650 0.08724008 0.18057874 0 0 0 0
0.02169994 0.09418873 0.17000543 0 0 0 0
-0.00796565 0.08811638 0.24855618 0 0 0 0
-0.02961013 0.06868564 0.16936545 0 0 0 0
0.05742773 -0.00612136 0.07589358 0 0 0 0
0.01164231 0.01111021 0.00006672 0 0 0 0
-0.04091451 0.05429270 0.01988824 0 0 0 0
-0.04372452 0.08634987 0.21071827 0 0 0 0
-0.01824770 0.06087347 0.18994910 0 0 0 0
0.03161186 0.09230265 0.19987285 0 0 0 0
-0.03856882 0.06089189 0.21018477 0 0 0 0
-0.02852848 0.09184454 0.22003813 0 0 0 0
0.03106759 0.06190764 0.12961856 0 0 0 0
-0.05639699 0.02117517 0.07959231 0 0 0 0
-0.02842765 0.06088888 0.20008498 0 0 0 0
0.00163555 -0.06787684 0.02995104 0 0 0 0
0.06239247 0.01094884 0.07040300 0 0 0 0
0.04906370 0.01160337 0.08723071 0 0 0 0
0.02156181 0.09081968 0.15011345 0 0 0 0
-0.03838503 0.06088534 0.20012575 0 0 0 0
-0.04822842 0.06147991 0.21009524 0 0 0 0
-0.04292971 0.05601015 0.07692300 0 0 0 0
-0.01838399 0.06083575 0.21004315 0 0 0 0
-0.03852889 0.06112840 0.24048397 0 0 0 0
0.03172747 0.08966427 0.17007078 0 0 0 0
0.02577586 -0.00266136 0.09472467 0 0 0 0
0.03793457 -0.01551658 0.08565843 0 0 0 0
-0.04090996 -0.05192453 0.05100083 0 0 0 0
-0.05236135 0.01015719 0.08389799 0 0 0 0
-0.02378481 -0.00443584 0.09538694 0 0 0 0
0.02880528 0.06295890 0.17375369 0 0 0 0
0.04462359 -0.04210097 0.06277862 0 0 0 0
0.03741892 0.08678427 0.17197958 0 0 0 0
0.04840059 0.08048281 0.20989430 0 0 0 0
-0.03641708 -0.05572301 0.04944416 0 0 0 0
-0.05099272 0.00087869 0.08304885 0 0 0 0
0.03233114 0.07002603 0.16998181 0 0 0 0
0.02279634 0.09488772 0.17977323 0 0 0 0
-0.02969720 0.08037328 0.25162992 0 0 0 0
-0.06316257 -0.02359760 0.03419855 0 0 0 0
0.03354234 0.08417103 0.14946698 0 0 0 0
-0.01947918 0.04850844 0.12288081 0 0 0 0
0.04846625 0.08042376 0.21985397 0 0 0 0
-0.03882629 0.07111789 0.17978133 0 0 0 0
0.02364614 0.08479358 0.12907895 0 0 0 0
0.03797252 0.05704108 0.05045823 0 0 0 0
-0.00864246 0.08068864 0.10001893 0 0 0 0
0.03258970 -0.04114023 0.07282768 0 0 0 0
-0.02129653 0.06556968 0.05854000 0 0 0 0
-0.00843187 0.06265154 0.14920355 0 0 0 0
-0.04085562 0.05438637 0.01017807 0 0 0 0
-0.01855398 0.06084625 0.19999050 0 0 0 0
0.01171920 0.06085834 0.19023091 0 0 0 0
0.00164124 0.05845152 0.14127788 0 0 0 0
-0.02849647 0.06107641 0.17986186 0 0 0 0
-0.02958166 0.06429536 0.06934393 0 0 0 0
0.04824282 -0.03559445 0.06678319 0 0 0 0
0.02151949 0.06188662 0.13989221 0 0 0 0
0.04204578 0.08147026 0.17993946 0 0 0 0
-0.02828330 0.06078792 0.19018738 0 0 0 0
0.03136286 0.09204973 0.18996577 0 0 0 0
-0.03855233 0.06087063 0.22022788 0 0 0 0
0.03918042 0.06865843 0.11048678 0 0 0 0
-0.02212879 0.07572652 0.09678201 0 0 0 0
0.06733175 0.01055248 0.04001114 0 0 0 0
-0.02649174 0.07761516 0.25730413 0 0 0 0
0.03177256 0.08289546 0.13982642 0 0 0 0
0.03931612 0.08773533 0.21955030 0 0 0 0
0.04128375 0.07992934 0.24002865 0 0 0 0
0.02175037 0.06084681 0.19033408 0 0 0 0
0.01546699 0.06603860 0.01231805 0 0 0 0
0.01172193 0.06085499 0.20007794 0 0 0 0
0.01159745 0.02103541 0.00006694 0 0 0 0
-0.04666991 0.08024349 0.22945590 0 0 0 0
0.04845813 0.06191035 0.22975557 0 0 0 0
0.02157279 0.01128033 0.10123906 0 0 0 0
-0.03713641 0.08083269 0.15030855 0 0 0 0
-0.00823949 0.06088790 0.20970416 0 0 0 0
0.03157950 0.06087094 0.23013723 0 0 0 0
-0.00825150 0.06124331 0.16921602 0 0 0 0
0.06615677 -0.01172832 0.05280653 0 0 0 0
