ply
format ascii 1.0
comment https://github.com/mikedh/trimesh
element vertex 1132
property float x
property float y
property float z
property uchar red
property uchar green
property uchar blue
property uchar alpha
end_header
-0.02508789 0.01434536 0.00011358 0 0 0 0
-0.05517837 0.01404077 0.00011365 0 0 0 0
-0.06546508 0.01412647 0.00011367 0 0 0 0
-0.07538974 0.01413701 0.00011373 0 0 0 0
0.07484150 0.00452772 0.00011325 0 0 0 0
0.06463095 0.00446942 0.00011325 0 0 0 0
0.04480110 0.00464976 0.00011329 0 0 0 0
0.03484733 0.00440585 0.00011326 0 0 0 0
0.01479552 0.00434870 0.00011321 0 0 0 0
0.00449815 0.00439770 0.00011322 0 0 0 0
-0.01516425 0.00409027 0.00011316 0 0 0 0
-0.02504916 0.00409357 0.00011315 0 0 0 0
-0.04519315 0.00418942 0.00011324 0 0 0 0
-0.05548897 0.00423841 0.00011327 0 0 0 0
-0.07518533 0.00433214 0.00011335 0 0 0 0
0.07494080 -0.00567932 0.00011281 0 0 0 0
0.05471781 -0.00568401 0.00011284 0 0 0 0
0.03487597 -0.00576082 0.00011285 0 0 0 0
0.01505547 -0.00577153 0.00011280 0 0 0 0
-0.00538134 -0.00573890 0.00011280 0 0 0 0
-0.03507989 -0.00570181 0.00011288 0 0 0 0
-0.04532420 -0.00544377 0.00011288 0 0 0 0
-0.05535123 -0.00550112 0.00011286 0 0 0 0
-0.06516673 -0.00545441 0.00011282 0 0 0 0
0.07463359 -0.01579414 0.00011237 0 0 0 0
0.03461196 -0.01560370 0.00011240 0 0 0 0
-0.00540968 -0.01541326 0.00011245 0 0 0 0
-0.01522646 -0.01576751 0.00011233 0 0 0 0
-0.02497416 -0.01575789 0.00011236 0 0 0 0
-0.04542661 -0.01566057 0.00011249 0 0 0 0
-0.07514577 -0.01558092 0.00011256 0 0 0 0
0.07479674 -0.02565142 0.00011205 0 0 0 0
0.04496384 -0.02561145 0.00011204 0 0 0 0
-0.02512688 0.02466793 0.00011394 0 0 0 0
0.02469534 -0.02560211 0.00011201 0 0 0 0
0.00475343 -0.02550722 0.00011201 0 0 0 0
-0.01515194 -0.02580537 0.00011210 0 0 0 0
-0.03512723 -0.02575317 0.00011207 0 0 0 0
-0.04531823 -0.02570467 0.00011201 0 0 0 0
-0.05506616 -0.02565829 0.00011207 0 0 0 0
-0.06518104 -0.02567046 0.00011216 0 0 0 0
0.06482755 -0.03571092 0.00011172 0 0 0 0
0.05467828 -0.03578566 0.00011166 0 0 0 0
0.04487780 -0.03567580 0.00011162 0 0 0 0
0.01484677 -0.03553290 0.00011163 0 0 0 0
-0.04521064 -0.03567888 0.00011181 0 0 0 0
0.04467660 -0.04558326 0.00011127 0 0 0 0
0.01474827 -0.04544084 0.00011127 0 0 0 0
0.00506558 -0.04539477 0.00011127 0 0 0 0
-0.00499253 -0.04569972 0.00011134 0 0 0 0
-0.02530118 -0.04568005 0.00011133 0 0 0 0
-0.04510377 -0.04558584 0.00011147 0 0 0 0
0.05491634 -0.05583603 0.00011089 0 0 0 0
0.02473302 -0.05575608 0.00011086 0 0 0 0
-0.01517570 -0.05556618 0.00011092 0 0 0 0
-0.03534934 -0.05547019 0.00011093 0 0 0 0
-0.05508445 -0.05537631 0.00011115 0 0 0 0
0.04470674 -0.06562322 0.00011056 0 0 0 0
0.03456765 -0.06569773 0.00011048 0 0 0 0
0.01487863 -0.06598525 0.00011051 0 0 0 0
-0.02522245 -0.06571335 0.00011061 0 0 0 0
0.01478013 -0.07575496 0.00011016 0 0 0 0
0.00486410 -0.07597945 0.00011007 0 0 0 0
-0.01516707 -0.07588413 0.00011008 0 0 0 0
0.00883655 -0.06046303 0.10690192 0 0 0 0
-0.00217037 -0.03089527 0.12726460 0 0 0 0
0.00796229 -0.03005255 0.12698726 0 0 0 0
-0.00848542 -0.03000040 0.12701200 0 0 0 0
0.03881737 -0.02890268 0.11651640 0 0 0 0
-0.01663581 -0.02761832 0.12627317 0 0 0 0
0.01333550 -0.02367858 0.12802669 0 0 0 0
0.00451506 -0.02526954 0.12865977 0 0 0 0
-0.01374282 -0.02368356 0.12807940 0 0 0 0
-0.01520765 -0.01548541 0.12935211 0 0 0 0
0.05889934 -0.01043520 0.09709092 0 0 0 0
0.02872839 -0.04006176 0.11662567 0 0 0 0
0.01484049 -0.00565477 0.13027427 0 0 0 0
-0.00538139 -0.00546804 0.13164937 0 0 0 0
0.06968135 -0.00024135 0.07700723 0 0 0 0
-0.02526252 -0.05551820 0.00011097 0 0 0 0
0.01476187 0.00445955 0.13035399 0 0 0 0
-0.00536676 0.00453296 0.13168477 0 0 0 0
-0.01524747 0.00441911 0.13040267 0 0 0 0
0.05978958 0.01285244 0.09702853 0 0 0 0
0.01492025 0.01439122 0.12960978 0 0 0 0
-0.00508427 0.01437729 0.13099419 0 0 0 0
-0.01519349 0.01434597 0.12969382 0 0 0 0
0.01795771 0.02718871 0.12672989 0 0 0 0
-0.00515149 -0.07593181 0.00011015 0 0 0 0
0.01407733 0.02362412 0.12822415 0 0 0 0
-0.00508007 0.02421177 0.12934785 0 0 0 0
-0.01456482 0.02385548 0.12826188 0 0 0 0
-0.01846927 0.02766162 0.12675044 0 0 0 0
-0.02529185 0.02462487 0.12534566 0 0 0 0
-0.00512029 -0.06580899 0.00011055 0 0 0 0
0.01131111 0.03069737 0.12741986 0 0 0 0
0.01514808 0.03475442 0.12573974 0 0 0 0
-0.01552163 0.03484917 0.12582207 0 0 0 0
-0.00514365 0.04452202 0.12431253 0 0 0 0
-0.01526110 0.04420882 0.12313819 0 0 0 0
-0.06488466 0.02405996 0.00011395 0 0 0 0
0.02651482 0.05583572 0.11594281 0 0 0 0
-0.01990512 0.05893004 0.11712327 0 0 0 0
-0.02685392 0.05627074 0.11598811 0 0 0 0
0.02821923 0.07787853 0.10642520 0 0 0 0
-0.01502384 0.07431032 0.11200736 0 0 0 0
0.01392159 0.08215810 0.10847251 0 0 0 0
-0.01445655 0.08226463 0.10849661 0 0 0 0
-0.00497294 0.08345749 0.10901782 0 0 0 0
0.01554133 0.08686572 0.10597853 0 0 0 0
-0.03520038 -0.01570923 0.00011239 0 0 0 0
0.00551155 0.08845001 0.10663477 0 0 0 0
-0.00587072 0.08851716 0.10664411 0 0 0 0
-0.01592231 0.08688673 0.10608249 0 0 0 0
-0.02958177 0.09860063 0.09676368 0 0 0 0
-0.01529083 0.09429666 0.10282847 0 0 0 0
-0.00507557 0.09451649 0.10395870 0 0 0 0
0.00493795 0.04447937 0.12427974 0 0 0 0
-0.02271573 0.10116298 0.09802217 0 0 0 0
-0.04000139 0.10889484 0.08703967 0 0 0 0
0.03922548 0.10896368 0.08686405 0 0 0 0
-0.01478322 0.10310794 0.09890317 0 0 0 0
-0.02569006 0.10529549 0.09509272 0 0 0 0
0.01605060 0.10757717 0.09636734 0 0 0 0
0.00909381 0.10892362 0.09702150 0 0 0 0
0.00501972 0.10432040 0.09941691 0 0 0 0
-0.00508554 0.10430473 0.09948391 0 0 0 0
-0.01630944 0.10773659 0.09644766 0 0 0 0
-0.00162144 0.10962822 0.09728122 0 0 0 0
0.02474334 0.11431832 0.09089314 0 0 0 0
-0.02514648 0.11426454 0.09111492 0 0 0 0
0.00468848 0.11444759 0.09480196 0 0 0 0
-0.00524968 0.11438312 0.09484791 0 0 0 0
-0.01503717 0.11435423 0.09363176 0 0 0 0
-0.02362142 0.12168977 0.08816575 0 0 0 0
-0.02608322 0.12575032 0.08543087 0 0 0 0
0.01727929 0.12820481 0.08652861 0 0 0 0
0.01447337 0.12363712 0.08924131 0 0 0 0
0.01066123 0.12954664 0.08725858 0 0 0 0
-0.00518596 0.12437208 0.09025950 0 0 0 0
-0.01091312 0.12961538 0.08734047 0 0 0 0
0.00680981 -0.05010710 0.11674774 0 0 0 0
-0.00510302 0.13033189 0.08752129 0 0 0 0
-0.03091553 0.13962294 0.07714563 0 0 0 0
0.02484651 0.13422629 0.08166505 0 0 0 0
-0.01525225 0.13437279 0.08431225 0 0 0 0
0.01498120 0.13447039 0.08419047 0 0 0 0
0.00500012 0.13530031 0.08521147 0 0 0 0
-0.00554412 0.13538004 0.08518140 0 0 0 0
0.02675211 0.14654528 0.07595801 0 0 0 0
-0.01363743 0.15126678 0.07785883 0 0 0 0
-0.01517987 -0.04572821 0.00011133 0 0 0 0
0.00433739 0.15257637 0.07840955 0 0 0 0
0.01546834 0.15570770 0.07568535 0 0 0 0
-0.02045676 -0.02078864 0.12726068 0 0 0 0
-0.00602601 0.15755577 0.07636233 0 0 0 0
-0.01583033 0.15565655 0.07567962 0 0 0 0
-0.02973474 0.16864125 0.06702664 0 0 0 0
0.01481879 0.16432545 0.07295946 0 0 0 0
0.00471421 0.16439077 0.07428899 0 0 0 0
-0.00513913 0.17428768 0.07163370 0 0 0 0
-0.01471220 0.18404023 0.06835663 0 0 0 0
0.01456829 0.18405263 0.06834053 0 0 0 0
0.00489859 0.18437247 0.06962356 0 0 0 0
-0.00511906 0.18438834 0.06962099 0 0 0 0
0.03910281 0.19525948 0.05669153 0 0 0 0
0.01706796 0.19487819 0.06640009 0 0 0 0
-0.01702012 0.19494596 0.06645649 0 0 0 0
0.00457063 0.19452319 0.06837739 0 0 0 0
0.00493078 -0.06585681 0.00011047 0 0 0 0
-0.00507435 0.19450662 0.06833375 0 0 0 0
-0.03129920 0.15855829 -0.04353302 0 0 0 0
0.03900680 0.14006393 -0.02243409 0 0 0 0
0.04899629 0.15040396 -0.02225250 0 0 0 0
0.06517994 -0.04593786 0.00032250 0 0 0 0
0.02522994 -0.07599159 0.00036806 0 0 0 0
0.01476882 -0.08370925 0.00256359 0 0 0 0
0.00480288 -0.08468693 0.00251662 0 0 0 0
-0.00513554 -0.08461090 0.00244400 0 0 0 0
-0.01500874 -0.08380036 0.00271554 0 0 0 0
0.01484104 -0.01557847 0.12926756 0 0 0 0
-0.02546473 -0.07610658 0.00032936 0 0 0 0
0.00499794 -0.05566217 0.00011086 0 0 0 0
-0.06082217 -0.06100435 0.00307990 0 0 0 0
-0.06071633 -0.06078402 0.01073648 0 0 0 0
0.02949485 -0.08045188 0.01293410 0 0 0 0
0.01479409 -0.08415598 0.01195406 0 0 0 0
0.00480838 -0.08524679 0.01191251 0 0 0 0
-0.00512717 -0.08516413 0.01191548 0 0 0 0
-0.06026736 -0.06086910 0.01933431 0 0 0 0
-0.00514300 -0.08510815 0.02187454 0 0 0 0
-0.00516358 -0.08479221 0.03192227 0 0 0 0
-0.01522173 -0.08369704 0.03203257 0 0 0 0
-0.02324324 -0.08141072 0.04174161 0 0 0 0
-0.00518974 -0.08415981 0.04208954 0 0 0 0
0.05059694 0.16803019 -0.03393999 0 0 0 0
-0.01823234 0.09149197 0.00760376 0 0 0 0
-0.00522351 -0.08301582 0.05207518 0 0 0 0
-0.00912790 0.10900124 0.09704676 0 0 0 0
0.00824229 -0.08048742 0.06628245 0 0 0 0
0.06616237 0.09426158 0.05200663 0 0 0 0
-0.00511628 -0.08167928 0.06168722 0 0 0 0
-0.00888792 -0.08050337 0.06631225 0 0 0 0
-0.00199352 -0.08078038 0.06745616 0 0 0 0
-0.00510772 -0.07607047 0.08218582 0 0 0 0
-0.07025906 0.05970299 0.05773227 0 0 0 0
-0.01518681 -0.07476039 0.08224547 0 0 0 0
0.00512877 -0.07925186 0.07220966 0 0 0 0
-0.02132364 -0.07102822 0.08812299 0 0 0 0
0.06590310 0.10420863 0.04206796 0 0 0 0
0.05528280 0.10442024 0.01187462 0 0 0 0
-0.00476038 -0.07238780 0.09073196 0 0 0 0
-0.03101983 -0.06125985 0.09786242 0 0 0 0
-0.01572476 -0.06886895 0.09408243 0 0 0 0
-0.00351775 -0.06117241 0.10786249 0 0 0 0
-0.01528707 -0.08202948 0.05200505 0 0 0 0
0.01591871 -0.04892652 0.11593939 0 0 0 0
-0.00513891 -0.05566498 0.11255565 0 0 0 0
-0.01654194 -0.04900732 0.11591551 0 0 0 0
0.00142987 -0.05100000 0.11776036 0 0 0 0
0.05898720 0.12203590 0.00857645 0 0 0 0
-0.00220674 -0.05106069 0.11773911 0 0 0 0
-0.01523534 -0.08305971 0.04216167 0 0 0 0
0.00498307 -0.05573305 0.11243747 0 0 0 0
0.01412486 -0.04431445 0.11945117 0 0 0 0
-0.01510460 -0.03556573 0.12374876 0 0 0 0
-0.03519380 0.20454860 -0.04795636 0 0 0 0
-0.02516227 0.20454881 -0.04786517 0 0 0 0
-0.01519704 0.20454912 -0.04796848 0 0 0 0
0.00483193 0.20454901 -0.04792181 0 0 0 0
0.01480274 0.20454921 -0.04792383 0 0 0 0
0.03479045 0.20454861 -0.04789418 0 0 0 0
-0.06436892 0.13440147 0.02196670 0 0 0 0
-0.03520538 0.20454910 -0.03800801 0 0 0 0
0.00134740 -0.08076202 0.06742515 0 0 0 0
0.05177097 0.00418177 0.10953958 0 0 0 0
0.01476618 -0.07466989 0.08214618 0 0 0 0
-0.02517609 0.20454904 -0.03809701 0 0 0 0
-0.01521144 -0.07811073 0.07216106 0 0 0 0
-0.00512165 0.20454928 -0.03793402 0 0 0 0
0.01479771 0.20454937 -0.03790783 0 0 0 0
0.02483160 0.20454907 -0.03779966 0 0 0 0
-0.04518939 0.20454971 -0.02805194 0 0 0 0
-0.01489573 -0.05515500 0.11141746 0 0 0 0
0.00509171 0.15760019 0.07639790 0 0 0 0
0.04923560 -0.05943345 0.07583202 0 0 0 0
-0.01530436 0.20454948 -0.02806561 0 0 0 0
0.02476050 0.20454945 -0.02791191 0 0 0 0
-0.05519418 0.20454979 -0.01795176 0 0 0 0
-0.04524134 0.20454983 -0.01794372 0 0 0 0
-0.03497043 0.01439238 0.00011355 0 0 0 0
-0.03526912 0.20454988 -0.01792037 0 0 0 0
-0.01512668 0.20454983 -0.01798541 0 0 0 0
-0.01412521 -0.07187787 0.08959842 0 0 0 0
-0.00503450 0.20454983 -0.01795565 0 0 0 0
0.02482166 0.20454988 -0.01794915 0 0 0 0
0.02528075 0.18469907 0.06517260 0 0 0 0
0.03477232 0.20454988 -0.01794992 0 0 0 0
-0.05515163 0.20455012 -0.00791544 0 0 0 0
-0.04511606 0.20455012 -0.00792546 0 0 0 0
-0.02687792 -0.01625944 0.12589772 0 0 0 0
-0.00505841 0.20455018 -0.00790986 0 0 0 0
0.01483086 0.04430935 0.12302431 0 0 0 0
0.01496605 0.20455018 -0.00791054 0 0 0 0
0.02492385 0.20455016 -0.00795285 0 0 0 0
-0.04521091 0.20455043 0.00202649 0 0 0 0
0.01477190 0.20455049 0.00208701 0 0 0 0
0.04484450 0.20455049 0.00203063 0 0 0 0
-0.03513292 0.20455076 0.01214500 0 0 0 0
0.02485370 0.20455079 0.01211627 0 0 0 0
-0.04737820 0.13224763 -0.01084486 0 0 0 0
0.05480174 0.20455076 0.01208588 0 0 0 0
-0.00515776 0.20455116 0.02209517 0 0 0 0
0.04657653 0.14289996 -0.02022450 0 0 0 0
0.00482267 0.20455116 0.02209612 0 0 0 0
0.02480679 0.20455110 0.02207969 0 0 0 0
-0.04426122 0.13554493 -0.01619780 0 0 0 0
0.05481776 0.20455107 0.02215108 0 0 0 0
-0.02843377 -0.00589483 0.12644255 0 0 0 0
-0.02517145 0.20455144 0.03191821 0 0 0 0
0.05902439 -0.05020113 0.06615629 0 0 0 0
-0.01523139 0.20455147 0.03197424 0 0 0 0
-0.00519048 0.20455147 0.03197563 0 0 0 0
-0.01748012 0.12835965 0.08665439 0 0 0 0
0.01480440 0.20455141 0.03192518 0 0 0 0
0.02484442 0.20455143 0.03203343 0 0 0 0
0.04480375 0.20455132 0.03198247 0 0 0 0
-0.01535620 0.14430185 0.08016017 0 0 0 0
-0.04519073 0.20454659 0.04198335 0 0 0 0
0.08123883 0.02439663 0.03205678 0 0 0 0
-0.06733621 0.19423901 0.00224889 0 0 0 0
-0.03514317 0.20455173 0.04192812 0 0 0 0
0.05233585 -0.04491458 0.09125064 0 0 0 0
-0.01529497 0.20455179 0.04200329 0 0 0 0
-0.00519397 0.20455179 0.04195235 0 0 0 0
0.02476552 0.20455176 0.04192839 0 0 0 0
0.03486910 0.20455176 0.04204116 0 0 0 0
0.04485545 0.20455168 0.04198740 0 0 0 0
-0.00503122 0.20455211 0.05210552 0 0 0 0
0.00490963 0.20455208 0.05210776 0 0 0 0
0.01485134 0.20455208 0.05211001 0 0 0 0
0.03823111 0.18235703 -0.05194585 0 0 0 0
0.02479390 0.20455208 0.05211224 0 0 0 0
0.01467712 0.11434563 0.09349492 0 0 0 0
0.03485557 0.20449211 0.05223476 0 0 0 0
-0.07595497 0.00457973 0.06214191 0 0 0 0
-0.01124216 0.20229657 0.06731873 0 0 0 0
-0.00546802 0.06711829 0.11624132 0 0 0 0
-0.06358165 0.05431154 0.08210640 0 0 0 0
-0.00500520 0.07427143 0.11322038 0 0 0 0
0.02491740 -0.06586721 0.00011051 0 0 0 0
0.00463772 0.20324145 0.06783817 0 0 0 0
0.05182101 0.14358181 0.05946217 0 0 0 0
0.00498280 0.07443857 0.11308098 0 0 0 0
0.01491048 0.07413154 0.11193799 0 0 0 0
0.02483903 0.15420048 0.07370042 0 0 0 0
0.01529491 0.06520811 0.11555093 0 0 0 0
0.07961409 -0.02950726 0.01652666 0 0 0 0
0.01260090 0.06102318 0.11774097 0 0 0 0
0.05912219 0.18521337 0.03622811 0 0 0 0
0.05785027 0.07553753 0.01867727 0 0 0 0
-0.00517554 0.05448446 0.12106168 0 0 0 0
-0.05935701 0.14185852 -0.00120456 0 0 0 0
-0.00475904 0.06219458 0.11817419 0 0 0 0
-0.07840906 0.01435151 0.05218374 0 0 0 0
-0.01495165 -0.06410498 0.10168437 0 0 0 0
-0.00518025 0.19417979 -0.06699847 0 0 0 0
-0.01529612 0.19420956 -0.06536000 0 0 0 0
0.02495751 -0.00588326 0.00011283 0 0 0 0
-0.02224915 0.19529440 -0.06347291 0 0 0 0
-0.01434510 0.18521759 -0.06406862 0 0 0 0
0.04181233 -0.05237169 0.09907391 0 0 0 0
-0.01521912 0.20454895 -0.05785612 0 0 0 0
-0.00892600 0.18065125 -0.06256603 0 0 0 0
-0.00523443 0.18434665 -0.06519796 0 0 0 0
-0.00506301 0.20455243 0.06212459 0 0 0 0
-0.01717378 0.18202043 -0.06197800 0 0 0 0
-0.06096331 0.13638993 0.00506281 0 0 0 0
-0.03435753 0.20382646 -0.05583623 0 0 0 0
-0.01522186 0.17416163 -0.05940795 0 0 0 0
-0.02268770 0.16780271 -0.05383553 0 0 0 0
-0.01475145 0.16627724 -0.05501477 0 0 0 0
0.02436753 0.09667446 0.00621106 0 0 0 0
-0.04723044 0.14484575 0.06390332 0 0 0 0
-0.02853415 0.17088911 -0.05207916 0 0 0 0
-0.03857780 0.18302073 -0.05152747 0 0 0 0
-0.04445631 0.20399381 -0.04719196 0 0 0 0
0.07827000 -0.00573759 0.05195935 0 0 0 0
-0.05076894 0.19496980 -0.04377178 0 0 0 0
-0.02516443 0.03461007 0.00011418 0 0 0 0
-0.02570130 0.16382565 -0.04929740 0 0 0 0
-0.04119042 0.16844156 -0.04357830 0 0 0 0
-0.05504148 -0.03571847 0.00011169 0 0 0 0
-0.02418118 0.15694404 -0.04492282 0 0 0 0
-0.01589910 0.15095785 -0.04131915 0 0 0 0
-0.02580164 0.15258580 -0.04015802 0 0 0 0
-0.05203684 0.17535152 -0.03535696 0 0 0 0
-0.05473785 0.19423853 -0.03801677 0 0 0 0
0.07240525 0.00417246 0.07201701 0 0 0 0
-0.05373583 0.20386289 -0.03712908 0 0 0 0
-0.04235348 0.15704764 -0.03475303 0 0 0 0
0.04480164 -0.01568567 0.00011240 0 0 0 0
-0.03232988 0.14798833 -0.03410931 0 0 0 0
-0.02525124 0.20454983 -0.01792052 0 0 0 0
-0.02467547 0.14682271 -0.03547529 0 0 0 0
0.02933452 0.16877583 0.06705514 0 0 0 0
0.07021692 0.00464899 0.07797705 0 0 0 0
-0.05531475 0.20441099 -0.02809100 0 0 0 0
-0.01607705 0.16176806 -0.05097546 0 0 0 0
-0.03864237 0.15080896 -0.03180296 0 0 0 0
-0.02501237 -0.00564548 0.00011276 0 0 0 0
-0.02507940 0.20455015 -0.00790918 0 0 0 0
-0.02576880 0.14221431 -0.03028413 0 0 0 0
-0.05347933 0.16487616 -0.02739624 0 0 0 0
-0.05815066 0.18377048 -0.02922384 0 0 0 0
0.03486202 0.20455077 0.01206288 0 0 0 0
-0.06157107 0.20320885 -0.02602971 0 0 0 0
0.06996180 -0.04098924 0.04822576 0 0 0 0
-0.05166059 0.15641001 -0.02477794 0 0 0 0
-0.03860346 0.14016061 -0.02246508 0 0 0 0
-0.05927006 0.17259046 -0.02113708 0 0 0 0
-0.04660932 0.14313848 -0.01985126 0 0 0 0
-0.07924498 -0.02762077 0.02269132 0 0 0 0
-0.06176646 0.17489782 -0.01727113 0 0 0 0
-0.03568987 0.13360538 -0.01906533 0 0 0 0
0.04219838 0.12276290 0.07876198 0 0 0 0
-0.05506036 0.15433601 -0.01784250 0 0 0 0
-0.05792303 0.16372645 -0.01877373 0 0 0 0
-0.06096815 0.16620055 -0.01467818 0 0 0 0
0.03477550 0.20455049 0.00203962 0 0 0 0
-0.06313633 0.20385091 -0.01757665 0 0 0 0
-0.05991193 0.16010578 -0.01190113 0 0 0 0
-0.06299943 0.18430786 -0.01821850 0 0 0 0
-0.03562686 0.12318900 -0.01007450 0 0 0 0
0.06469484 -0.02587946 0.00011208 0 0 0 0
0.07170827 -0.04418979 0.03177908 0 0 0 0
-0.05884130 0.15305908 -0.00989025 0 0 0 0
-0.05159758 0.12714292 -0.00422917 0 0 0 0
-0.05248937 -0.04487734 0.09118879 0 0 0 0
-0.02257022 0.20255674 -0.06351896 0 0 0 0
-0.06454684 0.09438966 0.03175275 0 0 0 0
-0.05344262 0.13496433 -0.00694656 0 0 0 0
0.04480691 0.20454942 -0.03785302 0 0 0 0
-0.06077656 0.14818411 -0.00407518 0 0 0 0
-0.06264643 0.16440244 -0.00779105 0 0 0 0
-0.07968283 -0.02886290 0.01275861 0 0 0 0
-0.06431828 0.17424212 -0.00817808 0 0 0 0
-0.06563309 0.18427299 -0.00826367 0 0 0 0
-0.02947931 -0.03987580 0.11697967 0 0 0 0
-0.06510425 0.04448134 0.00012619 0 0 0 0
0.02422895 -0.07250824 0.08125945 0 0 0 0
-0.02467443 -0.08195571 0.00315878 0 0 0 0
0.04409119 -0.07328310 0.03196391 0 0 0 0
-0.03250203 0.08064950 0.00562800 0 0 0 0
-0.03509692 -0.07681145 0.00224138 0 0 0 0
-0.04462448 -0.07330344 0.00293146 0 0 0 0
-0.04281993 0.01427459 0.11876744 0 0 0 0
-0.05495159 -0.06518133 0.00278219 0 0 0 0
-0.05501365 0.06369504 0.00217103 0 0 0 0
0.04741878 -0.06865670 0.05252303 0 0 0 0
-0.06134881 0.15548539 -0.00621964 0 0 0 0
-0.05293139 0.11545609 0.00436234 0 0 0 0
0.04939112 -0.07024039 0.02216442 0 0 0 0
-0.05746813 0.11379201 0.01114990 0 0 0 0
-0.06335599 0.15426317 0.00204404 0 0 0 0
-0.06495030 0.16429134 0.00218587 0 0 0 0
-0.06607586 0.17438920 0.00229806 0 0 0 0
-0.06443165 -0.05529691 0.00269199 0 0 0 0
-0.07632299 -0.02638442 0.00101585 0 0 0 0
-0.08138325 -0.02446195 0.00345166 0 0 0 0
-0.01490293 0.12379483 0.08929212 0 0 0 0
0.01470810 0.20454900 -0.05786359 0 0 0 0
-0.08420032 0.00442680 0.00274235 0 0 0 0
0.06173477 -0.05335818 0.05166541 0 0 0 0
-0.03926057 0.07851995 0.00762489 0 0 0 0
0.05043987 -0.07069185 0.00425825 0 0 0 0
-0.08348418 0.01420285 0.00303101 0 0 0 0
0.02129060 -0.07097349 0.08789510 0 0 0 0
-0.02448125 -0.08197817 0.01196515 0 0 0 0
-0.03298011 0.09204513 0.09844121 0 0 0 0
-0.02481898 0.13663179 -0.02559195 0 0 0 0
-0.07247060 -0.04461242 0.00317304 0 0 0 0
-0.03578178 0.09365637 0.00872723 0 0 0 0
-0.05520822 -0.01561403 0.00011257 0 0 0 0
-0.04679668 0.10196694 0.00828172 0 0 0 0
-0.08017528 0.02918427 0.00996898 0 0 0 0
-0.02943591 -0.08024209 0.01225261 0 0 0 0
-0.06998306 0.05863526 0.02807146 0 0 0 0
-0.05396606 0.09487757 0.01443723 0 0 0 0
-0.03518630 0.04466680 0.00011449 0 0 0 0
-0.06141393 0.12489904 0.01342355 0 0 0 0
0.04476022 0.20454986 -0.01798119 0 0 0 0
-0.07187410 0.05446389 0.05204504 0 0 0 0
-0.04272299 0.17525350 -0.04531211 0 0 0 0
-0.06394941 0.14427038 0.01196472 0 0 0 0
-0.06588777 0.16453455 0.01220652 0 0 0 0
-0.06636691 0.17440557 0.01223409 0 0 0 0
0.03068672 -0.08072527 0.00339053 0 0 0 0
-0.03136928 -0.07117997 0.07827962 0 0 0 0
-0.02450629 0.08263420 0.00391762 0 0 0 0
-0.03549558 -0.07799844 0.01224388 0 0 0 0
0.05750215 0.11370754 0.01023700 0 0 0 0
-0.00579952 -0.06958719 0.09550412 0 0 0 0
0.06091222 0.16558537 -0.01537973 0 0 0 0
-0.04470921 -0.07344057 0.01208398 0 0 0 0
0.06534092 0.13438837 0.03192572 0 0 0 0
-0.04935365 -0.07013203 0.01187659 0 0 0 0
-0.06711260 0.05483028 0.01177724 0 0 0 0
-0.07600321 -0.03556403 0.00237864 0 0 0 0
-0.07183377 -0.03441441 0.05135545 0 0 0 0
-0.05525242 0.10453862 0.01218796 0 0 0 0
-0.06217391 0.06236909 0.01358083 0 0 0 0
0.02482889 -0.01555715 0.00011237 0 0 0 0
0.00483048 0.05438981 0.12106099 0 0 0 0
0.04904306 -0.06987546 0.03278399 0 0 0 0
-0.06503056 0.15443899 0.01217944 0 0 0 0
-0.05998301 0.11029526 0.01731214 0 0 0 0
0.01457606 0.01451687 0.00011359 0 0 0 0
0.05270590 0.16403922 0.05080206 0 0 0 0
0.05273558 0.09378994 0.08076086 0 0 0 0
-0.05526001 -0.06543905 0.01222446 0 0 0 0
-0.01353360 0.06102068 0.11771376 0 0 0 0
-0.06463389 -0.05565969 0.01194028 0 0 0 0
-0.08314925 -0.01571305 0.01213295 0 0 0 0
-0.08446268 -0.00564637 0.01212702 0 0 0 0
-0.04498089 -0.05531298 0.09185643 0 0 0 0
-0.08373252 0.01427850 0.01227036 0 0 0 0
0.06153810 -0.04402616 0.07111014 0 0 0 0
-0.08167095 0.02411590 0.01240057 0 0 0 0
-0.01520512 0.20454924 -0.03805532 0 0 0 0
-0.06508598 0.06449229 0.02197982 0 0 0 0
-0.05943854 0.10348708 0.01820415 0 0 0 0
-0.05851011 0.09387402 0.01892607 0 0 0 0
-0.01518427 -0.08397695 0.02197329 0 0 0 0
-0.05128247 0.13861117 -0.01344986 0 0 0 0
-0.06168853 0.09454612 0.02372359 0 0 0 0
0.04482906 0.20455018 -0.00791319 0 0 0 0
-0.07094315 0.05291194 0.06114842 0 0 0 0
-0.04724547 0.17364800 -0.03981406 0 0 0 0
-0.06489439 0.14431983 0.02210323 0 0 0 0
-0.06519484 0.15426108 0.02214910 0 0 0 0
0.06102989 0.13533995 0.00453403 0 0 0 0
-0.04927870 -0.06996605 0.02237891 0 0 0 0
-0.07199695 -0.02528195 0.06146082 0 0 0 0
-0.05060219 0.03233240 0.10761841 0 0 0 0
-0.06276124 0.07408213 0.02368697 0 0 0 0
0.05750675 0.09498309 0.07367213 0 0 0 0
-0.05499205 -0.06530234 0.02214340 0 0 0 0
-0.06878196 0.05665882 0.02137118 0 0 0 0
-0.07200690 -0.04381982 0.02205320 0 0 0 0
0.07987041 -0.02083996 0.03749454 0 0 0 0
-0.08370878 -0.00555930 0.02195514 0 0 0 0
0.01476050 0.20455174 0.04198193 0 0 0 0
0.06868473 -0.04895109 0.03263538 0 0 0 0
-0.06197052 0.10452858 0.02264503 0 0 0 0
-0.03793700 0.10029611 0.00741314 0 0 0 0
-0.08397568 0.00429543 0.02209826 0 0 0 0
-0.04218071 -0.05235003 0.09924092 0 0 0 0
-0.08319636 0.01419526 0.02225612 0 0 0 0
-0.08139160 0.02424294 0.02206657 0 0 0 0
0.03485190 0.20455016 -0.00792102 0 0 0 0
-0.06119941 0.20287783 0.02943865 0 0 0 0
-0.06129908 0.06016705 0.00444467 0 0 0 0
-0.06458825 0.12467132 0.03223079 0 0 0 0
-0.08036497 -0.02106430 0.02842963 0 0 0 0
0.02464791 -0.03564275 0.00011162 0 0 0 0
-0.04835696 0.07531738 0.09518854 0 0 0 0
-0.05974542 0.17574100 0.03635940 0 0 0 0
-0.04447774 0.10572020 0.00476920 0 0 0 0
-0.05923019 0.18480295 0.03557169 0 0 0 0
-0.03521113 -0.07779944 0.03202860 0 0 0 0
0.02167350 0.08041675 0.10756498 0 0 0 0
-0.07459166 -0.02555332 0.05187934 0 0 0 0
-0.06669252 0.07437604 0.03198106 0 0 0 0
-0.06063756 0.16245183 0.03801359 0 0 0 0
-0.05954774 -0.05987790 0.03274600 0 0 0 0
-0.07140037 -0.04305480 0.03170124 0 0 0 0
-0.07989383 0.02788914 0.03351840 0 0 0 0
-0.07978299 -0.01883458 0.03506922 0 0 0 0
0.02229718 0.10103248 0.09792603 0 0 0 0
-0.06036511 0.01392634 0.09758228 0 0 0 0
-0.08123234 -0.01491729 0.03147916 0 0 0 0
0.02448380 0.09415282 0.10029683 0 0 0 0
-0.06957859 0.06612132 0.05256252 0 0 0 0
-0.08232389 -0.00567655 0.03207351 0 0 0 0
0.06279000 -0.05464613 0.04185599 0 0 0 0
-0.06447928 0.11443334 0.03210374 0 0 0 0
-0.03528795 0.07402325 0.00096773 0 0 0 0
-0.04954680 -0.05982415 0.07511196 0 0 0 0
-0.08219466 0.01404751 0.03215993 0 0 0 0
-0.04645977 0.07622659 0.01015471 0 0 0 0
-0.05649076 0.17437904 0.04224801 0 0 0 0
-0.04668248 0.10494450 0.08350486 0 0 0 0
-0.05506438 0.18435837 0.04237041 0 0 0 0
-0.05690798 0.05461290 0.09274749 0 0 0 0
-0.08041217 -0.01260555 0.03845778 0 0 0 0
-0.01516542 0.20455047 0.00203918 0 0 0 0
-0.05875772 0.15508871 0.04431414 0 0 0 0
0.04823729 0.09558161 0.08525496 0 0 0 0
-0.05778296 0.16466269 0.04279398 0 0 0 0
0.05053838 0.06089419 0.09793103 0 0 0 0
0.05911216 0.19354236 -0.03169969 0 0 0 0
-0.02789635 -0.07980243 0.04257148 0 0 0 0
-0.05961580 0.14640749 0.04604524 0 0 0 0
0.06535171 -0.05581486 0.01198705 0 0 0 0
-0.06467503 0.11414657 0.04204972 0 0 0 0
-0.05094249 0.18331921 0.04802626 0 0 0 0
0.06958239 -0.05000526 0.01274502 0 0 0 0
-0.06524435 0.10411128 0.04216558 0 0 0 0
-0.04374627 -0.07273562 0.04197287 0 0 0 0
-0.06692737 0.08426540 0.04222383 0 0 0 0
-0.04466375 0.07231789 0.00254032 0 0 0 0
-0.05174048 0.17359015 0.04905915 0 0 0 0
-0.06218645 0.06391171 0.08082780 0 0 0 0
-0.08081525 -0.00523633 0.04016883 0 0 0 0
-0.04779628 -0.05800388 0.08320004 0 0 0 0
-0.08087606 0.01384091 0.04042294 0 0 0 0
-0.06171896 0.18420698 0.03051907 0 0 0 0
-0.05132296 0.10736682 0.00649011 0 0 0 0
-0.07065259 -0.03202799 0.05893593 0 0 0 0
-0.06963190 0.06709985 0.04151954 0 0 0 0
-0.05883191 -0.05913413 0.04265928 0 0 0 0
-0.07090469 -0.04211314 0.04063482 0 0 0 0
-0.07277143 0.05416911 0.04200326 0 0 0 0
-0.07758113 0.03442868 0.04213037 0 0 0 0
-0.04405469 0.20369148 0.05056325 0 0 0 0
-0.07978376 0.01484349 0.04538295 0 0 0 0
-0.04545709 0.19448598 0.05200930 0 0 0 0
-0.04104761 -0.02275369 0.11784718 0 0 0 0
-0.03953639 0.19551001 0.05656826 0 0 0 0
-0.06655258 0.19417998 -0.00798181 0 0 0 0
0.08184897 0.02436030 0.02211362 0 0 0 0
-0.03529703 0.20446432 0.05215765 0 0 0 0
-0.04829751 0.16512477 0.05509247 0 0 0 0
-0.01511663 0.20455208 0.05205115 0 0 0 0
0.06929065 -0.02912224 0.06569499 0 0 0 0
-0.05411542 0.15426499 0.05192930 0 0 0 0
-0.01523959 0.01433601 0.00011353 0 0 0 0
-0.04930112 -0.06971075 0.03221028 0 0 0 0
-0.05648126 0.14438245 0.05234962 0 0 0 0
-0.02596273 -0.07931719 0.05260609 0 0 0 0
-0.07536441 -0.00557424 0.06190828 0 0 0 0
-0.05829827 0.13483205 0.05343910 0 0 0 0
0.06492713 -0.05571721 0.02201275 0 0 0 0
-0.06284037 0.11438489 0.05205961 0 0 0 0
-0.03489733 0.00414043 0.00011323 0 0 0 0
-0.05951802 0.12565583 0.05552041 0 0 0 0
0.01606663 -0.07984153 0.06335761 0 0 0 0
0.02296541 0.00427961 0.12831153 0 0 0 0
-0.02464615 0.20403312 0.06113646 0 0 0 0
0.06911477 -0.04987696 0.02342023 0 0 0 0
-0.06422447 0.10441879 0.05225455 0 0 0 0
-0.03521202 0.18447565 0.06069750 0 0 0 0
0.01266188 -0.08121953 0.05997919 0 0 0 0
-0.03515841 -0.03564400 0.00011179 0 0 0 0
0.03499390 -0.04553718 0.00011124 0 0 0 0
-0.05143217 0.08244073 0.08846644 0 0 0 0
-0.02498777 0.19449930 0.06409629 0 0 0 0
0.06098747 -0.02457307 0.08945280 0 0 0 0
-0.05083274 0.15053888 0.05768846 0 0 0 0
0.05834328 -0.04807657 0.07333661 0 0 0 0
-0.01506102 0.20428827 0.06239171 0 0 0 0
-0.03527858 0.19424970 -0.05670432 0 0 0 0
-0.04278799 -0.07199001 0.05163626 0 0 0 0
0.01450593 -0.06409194 0.10152509 0 0 0 0
-0.04763960 -0.06859411 0.05254659 0 0 0 0
0.07997368 -0.03114119 0.01189191 0 0 0 0
-0.06821633 0.07450307 0.05217285 0 0 0 0
0.02083934 0.02033225 0.12732266 0 0 0 0
0.00301692 -0.06115782 0.10792870 0 0 0 0
-0.02542371 0.18463768 0.06519613 0 0 0 0
0.02486541 0.02464888 0.12516938 0 0 0 0
0.00480319 -0.06506440 0.10230863 0 0 0 0
-0.02163014 0.18053283 0.06738575 0 0 0 0
-0.07060136 0.06119905 0.05125517 0 0 0 0
-0.08080290 -0.02295014 0.02117412 0 0 0 0
0.01235839 -0.06084652 0.10720053 0 0 0 0
-0.04864724 -0.06933968 0.04225748 0 0 0 0
-0.05193248 0.14357443 0.05926175 0 0 0 0
-0.04366854 0.16386366 0.06025491 0 0 0 0
-0.03529313 0.17440194 0.06279903 0 0 0 0
-0.02926834 -0.08029380 0.02182136 0 0 0 0
0.00448496 -0.07238623 0.09063543 0 0 0 0
-0.02783999 0.17551520 0.06608441 0 0 0 0
0.02489582 0.01463751 0.00011361 0 0 0 0
-0.05789369 -0.05785143 0.05244216 0 0 0 0
-0.01935601 0.08895845 0.00749250 0 0 0 0
-0.07583649 0.03452301 0.05215270 0 0 0 0
-0.03226117 0.07148726 0.10805320 0 0 0 0
-0.06092479 0.11240478 0.05875242 0 0 0 0
-0.03621577 0.16515018 0.06489106 0 0 0 0
-0.03536795 0.06438078 0.00011516 0 0 0 0
0.06665406 0.16435009 0.01225668 0 0 0 0
-0.03948991 0.19102648 -0.05245545 0 0 0 0
0.03491117 0.05429737 0.11288878 0 0 0 0
-0.04125647 -0.07131765 0.06028545 0 0 0 0
-0.06923050 -0.03849057 0.05401541 0 0 0 0
0.01485252 -0.07799123 0.07220140 0 0 0 0
-0.07845303 -0.00541977 0.05174787 0 0 0 0
-0.05015859 0.18941115 -0.04217209 0 0 0 0
0.04468624 0.04428677 0.00011482 0 0 0 0
-0.07743677 0.02438983 0.05205113 0 0 0 0
-0.04521053 0.15431486 0.06209048 0 0 0 0
0.01502280 0.07439794 0.00011525 0 0 0 0
-0.02502693 0.16430344 0.07020479 0 0 0 0
-0.02486625 0.17451374 -0.05629167 0 0 0 0
0.05076955 0.19517541 -0.04381574 0 0 0 0
-0.02525956 -0.07793739 0.06204949 0 0 0 0
-0.07697250 -0.01554430 0.05208842 0 0 0 0
-0.05592532 0.12447119 0.06219338 0 0 0 0
-0.06175759 0.10372709 0.06105102 0 0 0 0
-0.03478438 0.15373385 0.06974409 0 0 0 0
-0.01675899 -0.05965165 0.10609243 0 0 0 0
0.08180301 -0.02569724 0.00340204 0 0 0 0
-0.06859484 0.06439064 0.06222868 0 0 0 0
-0.05931033 0.10603251 0.06534013 0 0 0 0
0.02547452 0.09193427 0.00774573 0 0 0 0
-0.04261118 0.14348172 0.06912860 0 0 0 0
0.06196937 0.08381537 0.07112292 0 0 0 0
-0.03528629 -0.07395615 0.06210703 0 0 0 0
-0.05504489 0.12448888 0.00212515 0 0 0 0
0.08526509 -0.00556557 0.01214080 0 0 0 0
-0.07133359 -0.01494352 0.07014769 0 0 0 0
-0.06502485 0.08435957 0.06222128 0 0 0 0
-0.06681409 0.07425532 0.06212383 0 0 0 0
-0.02717828 0.14629403 0.07599705 0 0 0 0
0.01534564 -0.06882487 0.09396351 0 0 0 0
-0.04610140 -0.06752277 0.06236127 0 0 0 0
-0.08124027 -0.02394227 0.01187304 0 0 0 0
-0.06593905 0.09420808 0.04193268 0 0 0 0
0.08407810 -0.01557637 0.01212844 0 0 0 0
-0.07206360 -0.00554657 0.07179391 0 0 0 0
-0.05788137 0.13370487 0.00109779 0 0 0 0
0.04316835 -0.06299236 0.08114568 0 0 0 0
-0.02390795 0.14286290 0.07852606 0 0 0 0
-0.06968353 0.05687143 0.06425133 0 0 0 0
0.01867266 0.18738590 0.06686892 0 0 0 0
-0.03525954 0.14425355 0.07319355 0 0 0 0
-0.05670388 -0.05611945 0.06244141 0 0 0 0
-0.07019176 0.04965859 0.06753981 0 0 0 0
0.05863805 -0.05937158 0.04304661 0 0 0 0
0.00486250 0.20454930 -0.03785133 0 0 0 0
-0.03728536 0.13596818 0.07560347 0 0 0 0
-0.06790616 -0.03598407 0.06259529 0 0 0 0
-0.06959118 -0.02874188 0.06562866 0 0 0 0
-0.07388196 -0.01573794 0.06216772 0 0 0 0
-0.07581992 0.01437125 0.06212553 0 0 0 0
0.03939417 -0.07051498 0.06631593 0 0 0 0
0.08367345 -0.01567391 0.00278603 0 0 0 0
-0.07022481 -0.00224290 0.07737775 0 0 0 0
-0.06098342 0.09235233 0.06885624 0 0 0 0
-0.04879961 0.11606306 0.07550146 0 0 0 0
-0.02524270 -0.07548920 0.07213270 0 0 0 0
0.05049176 -0.04203492 0.09814893 0 0 0 0
-0.01506933 0.20455019 -0.00790952 0 0 0 0
-0.05570562 0.10441040 0.07211172 0 0 0 0
-0.03377866 -0.07236034 0.07130600 0 0 0 0
-0.05455435 0.03426994 0.10209860 0 0 0 0
-0.07058321 -0.02209809 0.06833264 0 0 0 0
-0.04225142 0.12307076 0.07882025 0 0 0 0
0.02204938 -0.01443162 0.12770931 0 0 0 0
-0.03813539 -0.06935779 0.07352631 0 0 0 0
0.02302818 -0.00537377 0.12823118 0 0 0 0
-0.05933243 0.08641540 0.07572249 0 0 0 0
-0.06389947 0.07429434 0.07229237 0 0 0 0
-0.04530106 -0.06525194 0.07196236 0 0 0 0
-0.06685820 0.18423465 0.00230342 0 0 0 0
-0.07606461 -0.03570247 0.02210625 0 0 0 0
-0.06599964 0.06430501 0.07225557 0 0 0 0
-0.03526107 0.12436306 0.08222584 0 0 0 0
-0.07142611 0.03374404 0.07085446 0 0 0 0
-0.02493623 -0.02580167 0.00011212 0 0 0 0
-0.06783096 0.05441519 0.07221279 0 0 0 0
-0.06478611 -0.03569755 0.07217921 0 0 0 0
-0.06936972 -0.01654821 0.07478882 0 0 0 0
-0.06998722 -0.00878761 0.07622002 0 0 0 0
0.02438004 -0.08200176 0.00302743 0 0 0 0
0.07577632 0.00432059 0.06203694 0 0 0 0
-0.05100684 0.20234196 -0.04391191 0 0 0 0
-0.07256076 0.00448894 0.07215838 0 0 0 0
-0.07257949 0.01445831 0.07211603 0 0 0 0
-0.05920985 0.03532922 0.09560896 0 0 0 0
-0.06109663 0.07300291 0.07889826 0 0 0 0
0.08158186 0.00411912 0.04207952 0 0 0 0
-0.06039808 -0.04131328 0.07800981 0 0 0 0
-0.05042851 0.19145693 0.04729275 0 0 0 0
-0.04882019 0.09575323 0.08550091 0 0 0 0
0.01377467 -0.07180966 0.08951505 0 0 0 0
-0.02788107 -0.06971875 0.08485641 0 0 0 0
-0.05560207 0.08435306 0.08215734 0 0 0 0
-0.06654137 0.18442804 0.01230618 0 0 0 0
-0.07703556 -0.03547148 0.01221308 0 0 0 0
-0.02213724 0.08037461 0.10770799 0 0 0 0
0.02493253 0.11084919 -0.00172862 0 0 0 0
-0.03543849 -0.07569324 0.05212855 0 0 0 0
0.02292362 0.12163963 0.08809067 0 0 0 0
-0.05775097 0.07491491 0.08341861 0 0 0 0
-0.04950430 0.15690547 0.05664485 0 0 0 0
-0.04228252 0.10265750 0.08874701 0 0 0 0
-0.04333419 -0.06304041 0.08123083 0 0 0 0
0.00128122 -0.03091058 0.12727442 0 0 0 0
-0.05902383 0.06561996 0.08547330 0 0 0 0
-0.03516905 0.10422213 0.09178763 0 0 0 0
-0.03973265 -0.07026143 0.06547190 0 0 0 0
-0.04122371 0.06091120 0.10762725 0 0 0 0
-0.05212842 -0.05344470 0.08118935 0 0 0 0
-0.05905074 0.19397019 -0.03080428 0 0 0 0
-0.05426517 0.19440663 0.04213123 0 0 0 0
-0.04444177 0.09383067 0.09092478 0 0 0 0
-0.06826863 0.01476105 0.08291494 0 0 0 0
-0.03639203 0.09546115 0.09522592 0 0 0 0
0.02490568 0.16435406 0.07015421 0 0 0 0
-0.06410351 -0.02566163 0.08220875 0 0 0 0
-0.06650215 -0.01556120 0.08204069 0 0 0 0
-0.06830290 0.00413252 0.08278653 0 0 0 0
-0.03514865 -0.07704058 0.04209585 0 0 0 0
0.03479589 -0.03556801 0.00011164 0 0 0 0
0.02557598 0.12549625 0.08537020 0 0 0 0
-0.02535338 0.11089889 -0.00164338 0 0 0 0
-0.05294319 0.07379469 0.09043504 0 0 0 0
0.03478261 -0.02573351 0.00011200 0 0 0 0
-0.04704361 0.17458552 0.05399996 0 0 0 0
-0.04905538 0.18263143 -0.04162485 0 0 0 0
-0.07232489 0.04414723 0.06226628 0 0 0 0
0.02487109 -0.04548901 0.00011126 0 0 0 0
0.02485286 0.20435277 -0.05796484 0 0 0 0
-0.04634628 0.08486508 0.09314270 0 0 0 0
-0.07551220 0.04444188 0.03213756 0 0 0 0
0.02203938 0.20310876 -0.06369703 0 0 0 0
-0.04208529 0.08218580 0.09831010 0 0 0 0
-0.05469415 0.06424517 0.09209630 0 0 0 0
-0.01586134 0.06527255 0.11557653 0 0 0 0
-0.03739207 -0.05896770 0.09496085 0 0 0 0
-0.01464784 -0.04444744 0.11942693 0 0 0 0
-0.00513803 0.20454901 -0.04791975 0 0 0 0
0.01463757 0.03442068 0.00011421 0 0 0 0
0.05307521 0.11387902 0.07141215 0 0 0 0
-0.04879111 -0.04820170 0.09490774 0 0 0 0
-0.07847244 0.03426507 0.03214068 0 0 0 0
-0.02501582 -0.03586135 0.00011169 0 0 0 0
-0.06899649 0.04494717 0.07348979 0 0 0 0
-0.06034605 0.01987756 0.09722697 0 0 0 0
0.05083269 0.08204600 0.08846642 0 0 0 0
-0.01528365 0.08402310 0.00310692 0 0 0 0
-0.07851132 0.03439574 0.02206145 0 0 0 0
-0.05083360 -0.04154768 0.09765809 0 0 0 0
-0.04517509 0.20454940 -0.03810185 0 0 0 0
-0.05836499 -0.02629936 0.09380148 0 0 0 0
-0.06374153 0.00432792 0.09204225 0 0 0 0
-0.06060044 0.00398933 0.09756719 0 0 0 0
-0.05212024 0.05360407 0.09940879 0 0 0 0
-0.03883820 0.06752381 0.10630944 0 0 0 0
-0.06003070 -0.00943232 0.09685644 0 0 0 0
-0.01472375 0.20362528 -0.06481004 0 0 0 0
0.06741456 0.05440147 0.07230690 0 0 0 0
-0.02486274 0.07382672 0.10977256 0 0 0 0
-0.05973331 -0.06017110 0.02325297 0 0 0 0
-0.05071598 -0.05119892 0.08810887 0 0 0 0
-0.04561330 0.06442250 0.10262705 0 0 0 0
-0.06000263 -0.06054396 0.01127664 0 0 0 0
-0.01515810 0.20455116 0.02207587 0 0 0 0
-0.05172019 0.10297339 0.07879624 0 0 0 0
-0.00748569 -0.05008060 0.11677673 0 0 0 0
-0.04766139 0.05492773 0.10420901 0 0 0 0
-0.06533715 0.00428528 0.00011331 0 0 0 0
-0.05326752 0.04408082 0.10105844 0 0 0 0
0.06302452 0.20395938 0.02175358 0 0 0 0
-0.05250902 0.14555363 -0.01573310 0 0 0 0
-0.03151195 -0.05175079 0.10808796 0 0 0 0
-0.03591554 0.17366420 -0.04958790 0 0 0 0
-0.04524546 -0.04558485 0.10230754 0 0 0 0
0.02458807 0.03437333 0.00011423 0 0 0 0
-0.05208075 -0.03458401 0.10024887 0 0 0 0
-0.05685503 0.01432918 0.10262014 0 0 0 0
-0.04982898 -0.02905357 0.10685433 0 0 0 0
0.02367715 -0.08166426 0.03205301 0 0 0 0
-0.05317950 0.20355327 0.04080059 0 0 0 0
-0.04447245 0.04405291 0.11088527 0 0 0 0
-0.06207024 0.08423830 0.02421703 0 0 0 0
0.06204860 0.14421913 0.04200693 0 0 0 0
-0.05145663 -0.01509241 0.10898170 0 0 0 0
0.06326570 0.16431563 -0.00804257 0 0 0 0
-0.04469968 -0.07327437 0.02202865 0 0 0 0
0.07590012 0.04444568 0.03211948 0 0 0 0
-0.03907483 0.03697563 0.11656109 0 0 0 0
-0.05214487 0.00428106 0.10969281 0 0 0 0
-0.06027463 -0.03070364 0.08726506 0 0 0 0
0.05997671 -0.00364833 0.09796479 0 0 0 0
0.04439951 0.20408067 -0.04750481 0 0 0 0
0.06740155 0.08447286 0.05207592 0 0 0 0
-0.04072890 0.03025119 0.11735360 0 0 0 0
-0.02498190 0.11570599 -0.00608219 0 0 0 0
-0.05819311 0.07526227 0.01888342 0 0 0 0
-0.04661775 0.02467184 0.11381477 0 0 0 0
-0.03512930 0.08424609 0.10100006 0 0 0 0
-0.02520869 0.03427755 0.12335777 0 0 0 0
-0.04777562 0.01449223 0.11428662 0 0 0 0
-0.03479029 0.03405180 0.11948939 0 0 0 0
0.02469797 0.20455049 0.00203954 0 0 0 0
-0.03284185 -0.03374653 0.11845882 0 0 0 0
-0.00507203 -0.02524643 0.12867390 0 0 0 0
-0.04810136 -0.00594533 0.11461843 0 0 0 0
0.00472181 0.20390019 -0.06564713 0 0 0 0
0.03230230 0.09196485 0.09837788 0 0 0 0
-0.04179381 0.02331515 0.11812768 0 0 0 0
-0.00511598 0.15255676 0.07837544 0 0 0 0
-0.02516760 -0.02564420 0.12445845 0 0 0 0
-0.03519579 0.20455106 0.02203811 0 0 0 0
-0.03530857 0.01437166 0.12286462 0 0 0 0
-0.02757026 0.01469193 0.12615788 0 0 0 0
-0.02520426 0.20455177 0.04197468 0 0 0 0
0.00475859 -0.08166714 0.06164202 0 0 0 0
-0.04266667 0.11772069 -0.00396454 0 0 0 0
-0.02518650 0.20454948 -0.02806441 0 0 0 0
0.01502271 0.13082792 -0.02116575 0 0 0 0
-0.02432048 -0.06259214 0.09974355 0 0 0 0
0.01535996 0.16155481 -0.05118052 0 0 0 0
-0.03516502 -0.01559968 0.12246194 0 0 0 0
-0.00492845 0.12088709 -0.01150059 0 0 0 0
-0.03993591 0.18889885 0.05705026 0 0 0 0
-0.03506630 -0.00547491 0.12358516 0 0 0 0
-0.00495003 -0.04547028 0.12019260 0 0 0 0
-0.02859576 0.00482392 0.12644374 0 0 0 0
-0.04854129 -0.03703840 0.10449226 0 0 0 0
0.05904635 0.10692511 0.06573460 0 0 0 0
0.05421974 0.15427580 0.05201201 0 0 0 0
-0.02284716 0.01373781 0.12795216 0 0 0 0
-0.00548284 -0.07928532 0.07226305 0 0 0 0
0.00546863 -0.06961555 0.09536460 0 0 0 0
0.03111741 -0.05151534 0.10804883 0 0 0 0
-0.03530166 0.00446374 0.12361544 0 0 0 0
-0.02357304 -0.00523897 0.12828811 0 0 0 0
0.07362442 -0.03582349 0.04209072 0 0 0 0
-0.02363419 0.00415527 0.12833829 0 0 0 0
0.00470410 -0.07600179 0.08226748 0 0 0 0
0.01436784 0.15548304 -0.04642285 0 0 0 0
-0.03493664 -0.02544986 0.12032735 0 0 0 0
-0.08267936 0.00417327 0.03218744 0 0 0 0
0.01446823 0.20375310 -0.06486887 0 0 0 0
0.00496222 0.09450799 0.10390563 0 0 0 0
0.00501407 0.19409756 -0.06700820 0 0 0 0
0.02916401 -0.08040871 0.02191335 0 0 0 0
0.02178782 0.19477187 -0.06357663 0 0 0 0
-0.02181927 -0.08096155 0.04961628 0 0 0 0
0.01429354 0.18519637 -0.06403526 0 0 0 0
0.01498847 0.10468858 0.00164375 0 0 0 0
0.02644926 0.19383898 -0.06145136 0 0 0 0
0.02492264 -0.07539000 0.07208648 0 0 0 0
0.02512820 0.18407393 -0.05998489 0 0 0 0
0.03413974 0.20392330 -0.05622990 0 0 0 0
0.00507260 0.17324948 -0.06079992 0 0 0 0
-0.06393312 0.20405574 0.01191748 0 0 0 0
0.00486642 -0.08410345 0.04209771 0 0 0 0
-0.07281043 0.04371257 0.00299839 0 0 0 0
0.01466273 0.14438958 0.08022705 0 0 0 0
0.06455175 0.12431604 0.04233935 0 0 0 0
0.01486485 -0.08405865 0.02194883 0 0 0 0
0.06552623 0.08433861 0.06215737 0 0 0 0
0.04088097 0.20317654 -0.05370941 0 0 0 0
0.06128424 0.15385339 0.04034388 0 0 0 0
0.00449190 0.03215253 0.12782818 0 0 0 0
0.04047090 0.19523814 -0.05349013 0 0 0 0
0.00494904 0.18424886 -0.06526607 0 0 0 0
-0.04519283 0.20455073 0.01208066 0 0 0 0
0.02456176 0.20408943 0.06129343 0 0 0 0
0.03402421 0.18461987 -0.05552251 0 0 0 0
0.01514394 0.17411166 -0.05949606 0 0 0 0
-0.00511494 -0.06510841 0.10230305 0 0 0 0
0.00809368 0.18023685 -0.06261278 0 0 0 0
0.04045748 0.06055859 0.10764209 0 0 0 0
-0.02517655 0.20433518 -0.05781143 0 0 0 0
-0.02539733 -0.06685844 0.09243247 0 0 0 0
0.01450348 0.16613530 -0.05501212 0 0 0 0
0.05150110 0.12328912 0.06901938 0 0 0 0
-0.04743811 -0.01607457 0.11403444 0 0 0 0
-0.00538889 0.17340489 -0.06074626 0 0 0 0
0.01886639 -0.08047541 0.05632246 0 0 0 0
0.06405706 0.15441604 0.03239019 0 0 0 0
0.00525534 0.03723064 0.12644628 0 0 0 0
0.04549897 0.19405702 -0.04892866 0 0 0 0
-0.00488315 0.20392875 -0.06558303 0 0 0 0
0.02431436 0.07395781 0.10959278 0 0 0 0
-0.03197778 0.17677681 -0.05400890 0 0 0 0
-0.04192282 -0.04221764 0.10833320 0 0 0 0
-0.07075805 0.05004364 0.01427702 0 0 0 0
-0.06119791 0.15363687 0.03965638 0 0 0 0
-0.02509257 0.09420428 0.10038874 0 0 0 0
0.04276193 0.17511663 -0.04542591 0 0 0 0
0.02390515 0.15684004 -0.04501018 0 0 0 0
-0.01522655 0.06433072 0.00011516 0 0 0 0
0.05408930 0.06422640 0.09199872 0 0 0 0
-0.02868902 -0.08020791 0.03272375 0 0 0 0
0.01521960 0.15082708 -0.04156706 0 0 0 0
0.04721064 0.17347991 -0.04036939 0 0 0 0
0.02543369 0.15230104 -0.04028399 0 0 0 0
-0.06186945 -0.05305884 0.05175693 0 0 0 0
0.05634283 0.05461494 0.09262644 0 0 0 0
0.05399515 0.20402162 -0.03717740 0 0 0 0
0.03520310 0.14382949 -0.02866741 0 0 0 0
-0.05517648 0.20455043 0.00205133 0 0 0 0
0.05502451 -0.01566487 0.00011240 0 0 0 0
0.06196280 -0.01527660 0.09133992 0 0 0 0
0.00467468 -0.01544918 0.13067871 0 0 0 0
0.06488218 0.04432408 0.08230428 0 0 0 0
0.04466015 0.16449839 -0.03774098 0 0 0 0
-0.06293892 -0.05435577 0.04184354 0 0 0 0
0.05946340 0.05775842 0.08672779 0 0 0 0
0.05490183 0.20448244 -0.02799115 0 0 0 0
-0.05520235 0.20455071 0.01208926 0 0 0 0
0.03221871 0.14808996 -0.03412423 0 0 0 0
0.02512771 0.08474710 0.10439324 0 0 0 0
-0.07691162 -0.02580709 0.04206576 0 0 0 0
-0.06827571 0.07449875 0.04206844 0 0 0 0
0.06988670 0.06992152 0.04530945 0 0 0 0
-0.06498983 -0.01556748 0.00011257 0 0 0 0
0.03852720 0.15052684 -0.03212743 0 0 0 0
-0.04303796 -0.00561914 0.11924958 0 0 0 0
-0.03506657 0.15451775 -0.03750915 0 0 0 0
-0.00503500 0.14511836 -0.03704805 0 0 0 0
-0.03397267 0.18467349 -0.05549527 0 0 0 0
-0.00565268 0.15036532 -0.04183785 0 0 0 0
-0.02511311 0.18405563 -0.05986069 0 0 0 0
0.01519456 0.14079522 -0.03129657 0 0 0 0
-0.05609887 -0.04576477 0.08224012 0 0 0 0
-0.04462949 0.11380628 0.08124805 0 0 0 0
0.03456971 -0.02534072 0.12012262 0 0 0 0
0.05720882 0.07485056 0.08321541 0 0 0 0
0.05828205 0.18382746 -0.03008714 0 0 0 0
-0.00556386 0.14049409 -0.03172632 0 0 0 0
-0.03514916 0.20454961 -0.02811356 0 0 0 0
-0.06256288 0.13435204 0.01218130 0 0 0 0
0.06174890 0.19455199 -0.02683667 0 0 0 0
-0.07201548 0.02415643 0.07205229 0 0 0 0
-0.06295345 -0.00572220 0.09234966 0 0 0 0
0.05659853 0.17408481 -0.02844156 0 0 0 0
-0.04249179 -0.01522303 0.11856724 0 0 0 0
-0.03557896 0.11187751 -0.00105464 0 0 0 0
0.01519647 0.19431849 -0.06539910 0 0 0 0
0.04590265 0.15349506 -0.02897201 0 0 0 0
-0.07083892 0.06195766 0.04265768 0 0 0 0
0.06166754 -0.03480113 0.08092649 0 0 0 0
-0.01530358 0.13096158 -0.02112933 0 0 0 0
0.04318342 0.14606570 -0.02565499 0 0 0 0
0.03478886 0.20455106 0.02211668 0 0 0 0
0.00484320 -0.08472084 0.03193028 0 0 0 0
-0.06435848 0.20414124 0.00193774 0 0 0 0
0.02383087 -0.06250840 0.09978052 0 0 0 0
0.02448220 0.13648272 -0.02575433 0 0 0 0
-0.04821524 0.00428862 0.11462556 0 0 0 0
0.01462929 0.14566112 -0.03674271 0 0 0 0
0.02481949 0.20454893 -0.04796075 0 0 0 0
0.01465104 0.13571551 -0.02646580 0 0 0 0
-0.03511883 0.02431756 0.12144825 0 0 0 0
-0.00501281 0.13564010 -0.02700594 0 0 0 0
-0.05284801 0.16392477 0.05038281 0 0 0 0
-0.04331659 0.00443659 0.11920112 0 0 0 0
0.03479994 0.20455138 0.03194787 0 0 0 0
0.00482278 -0.08517411 0.02187063 0 0 0 0
-0.06405665 0.20411246 -0.00775112 0 0 0 0
0.01512056 0.12107781 -0.01129502 0 0 0 0
0.02496748 0.13173088 -0.02064980 0 0 0 0
-0.07066990 0.06090324 0.03464287 0 0 0 0
0.06477347 -0.03573160 0.07218476 0 0 0 0
-0.06350780 0.12432682 0.02199286 0 0 0 0
0.06374632 0.18428636 -0.01803399 0 0 0 0
-0.06298541 0.02420223 0.09189197 0 0 0 0
-0.05985121 0.02637037 0.09663735 0 0 0 0
0.01629213 -0.02755258 0.12622216 0 0 0 0
-0.04578890 -0.02574865 0.11295784 0 0 0 0
-0.06782390 -0.04677508 0.04247781 0 0 0 0
0.05040608 -0.05156144 0.08831854 0 0 0 0
0.02522552 0.16358656 -0.04954933 0 0 0 0
0.02459410 -0.08199345 0.01199857 0 0 0 0
0.03485905 0.10440949 0.00315964 0 0 0 0
0.00502226 0.09427869 0.00599613 0 0 0 0
-0.05323483 0.11384004 0.07111660 0 0 0 0
0.05253750 0.14526424 -0.01599446 0 0 0 0
-0.06420882 -0.05551298 0.02206149 0 0 0 0
-0.05323318 0.09386967 0.08105296 0 0 0 0
0.05154620 0.05369633 0.09925000 0 0 0 0
0.05101007 0.20327963 -0.04420048 0 0 0 0
0.02827501 -0.08020247 0.03265852 0 0 0 0
0.05054881 0.13833819 -0.01344515 0 0 0 0
0.01477887 0.20454954 -0.02786017 0 0 0 0
0.07276519 -0.04527077 0.00310542 0 0 0 0
0.04127721 0.12882890 -0.01346733 0 0 0 0
0.03481189 0.20454907 -0.03789682 0 0 0 0
0.00489548 -0.08304287 0.05207158 0 0 0 0
-0.06278138 0.20375353 0.02169590 0 0 0 0
0.02742443 -0.06967264 0.08482261 0 0 0 0
0.01484138 0.12588035 -0.01635521 0 0 0 0
-0.07514663 0.02430076 0.06206388 0 0 0 0
-0.06784165 -0.00574613 0.08227812 0 0 0 0
0.05922154 0.17101803 -0.02176408 0 0 0 0
-0.02602646 -0.05791107 0.10431013 0 0 0 0
-0.00495959 0.12569728 -0.01658755 0 0 0 0
0.06090707 0.06024119 0.00407966 0 0 0 0
0.04741459 0.13182688 -0.01113606 0 0 0 0
0.08194146 0.02420116 0.00342432 0 0 0 0
-0.06466246 0.13447537 0.03189073 0 0 0 0
0.06728180 0.19424893 -0.00810320 0 0 0 0
-0.04478623 0.01416773 0.00011357 0 0 0 0
-0.05405132 -0.06455746 0.04199084 0 0 0 0
0.06507394 0.17428400 -0.00821805 0 0 0 0
-0.06790045 0.02448928 0.08231696 0 0 0 0
-0.03818945 -0.04918480 0.10544775 0 0 0 0
0.05699620 0.14370641 -0.00847778 0 0 0 0
0.01487187 0.20454986 -0.01794838 0 0 0 0
0.04484843 0.12452567 -0.00760434 0 0 0 0
0.04146435 -0.04230846 0.10839520 0 0 0 0
0.04239160 0.11773876 -0.00413488 0 0 0 0
0.04078570 -0.06128273 0.08799776 0 0 0 0
0.05803797 0.13341138 0.00017194 0 0 0 0
0.03440718 0.11625950 -0.00510841 0 0 0 0
0.01490620 0.11533760 -0.00632049 0 0 0 0
-0.05897936 -0.03778790 0.08448362 0 0 0 0
-0.01511697 0.11543360 -0.00645054 0 0 0 0
-0.03490898 0.11643090 -0.00524877 0 0 0 0
-0.03477345 -0.04513168 0.11091830 0 0 0 0
0.05936735 0.14055297 -0.00203489 0 0 0 0
0.03409763 0.12734720 -0.01469377 0 0 0 0
0.05488067 -0.06608523 0.02213384 0 0 0 0
-0.08469529 0.00442342 0.01217644 0 0 0 0
-0.06021000 0.10577696 0.01687448 0 0 0 0
0.04483738 -0.05591183 0.00011084 0 0 0 0
0.06360643 -0.04553997 0.06203858 0 0 0 0
-0.03515400 0.10449941 0.00337536 0 0 0 0
0.04888280 0.12047032 -0.00207150 0 0 0 0
0.01486987 0.11051225 -0.00167655 0 0 0 0
-0.04505511 0.12469024 -0.00726971 0 0 0 0
-0.03554203 -0.06724706 0.08248660 0 0 0 0
0.00494748 0.11042348 -0.00181461 0 0 0 0
-0.07390945 0.03440884 0.06212338 0 0 0 0
0.05356288 0.18457893 -0.03745802 0 0 0 0
0.05020284 0.18856059 -0.04291664 0 0 0 0
-0.02586016 -0.04668074 0.11439370 0 0 0 0
-0.00535372 0.11057352 -0.00190382 0 0 0 0
-0.00516327 0.13066651 -0.02135510 0 0 0 0
-0.05602935 -0.03571925 0.09217462 0 0 0 0
-0.01562449 0.11048611 -0.00164601 0 0 0 0
0.04244080 0.14364170 0.06909679 0 0 0 0
0.06987540 -0.05082700 0.00174712 0 0 0 0
-0.03491570 -0.05519352 0.10179393 0 0 0 0
0.00506551 0.10468363 0.00149966 0 0 0 0
-0.04672221 0.12487482 0.07357664 0 0 0 0
0.05515953 0.19418363 -0.03802066 0 0 0 0
-0.02463057 -0.07258151 0.08136611 0 0 0 0
-0.04328444 0.14629963 -0.02561776 0 0 0 0
-0.00509763 0.10468588 0.00145991 0 0 0 0
-0.04110150 0.20263071 -0.05355119 0 0 0 0
-0.07030427 0.02099713 0.07741828 0 0 0 0
0.05880925 0.08593053 0.07563958 0 0 0 0
0.05188433 0.17508724 -0.03578933 0 0 0 0
-0.05076683 -0.02250795 0.10800338 0 0 0 0
-0.01512893 0.10460415 0.00174754 0 0 0 0
0.03516455 0.11146920 -0.00119867 0 0 0 0
-0.04857494 0.12094097 -0.00179982 0 0 0 0
-0.02684973 0.19383022 -0.06123959 0 0 0 0
0.04551281 0.11387906 0.00004221 0 0 0 0
-0.05522509 -0.04553768 0.00011152 0 0 0 0
-0.04572387 0.11399736 0.00050986 0 0 0 0
-0.02523861 0.20455043 0.00203909 0 0 0 0
-0.00514433 0.09438381 0.00598625 0 0 0 0
0.06809398 0.19440050 0.00196719 0 0 0 0
-0.07041183 0.00556185 0.07807770 0 0 0 0
0.05277220 0.11523043 0.00398904 0 0 0 0
0.06962820 0.06849317 0.05394801 0 0 0 0
0.06504221 0.10435423 0.03184128 0 0 0 0
0.05084872 0.10794123 0.00624058 0 0 0 0
0.04435583 0.10538125 0.00473049 0 0 0 0
-0.00510375 0.20454873 -0.05785872 0 0 0 0
0.02472870 0.10466852 0.00197671 0 0 0 0
