ply
format ascii 1.0
comment https://github.com/mikedh/trimesh
element vertex 1144
property float x
property float y
property float z
property uchar red
property uchar green
property uchar blue
property uchar alpha
end_header
-0.03552074 0.05813332 0.03019574 0 0 0 0
-0.00833256 0.06805510 0.04017589 0 0 0 0
-0.03807892 -0.05643266 0.02994473 0 0 0 0
-0.05140831 0.04442882 0.03002162 0 0 0 0
-0.04659581 0.04958165 0.03007636 0 0 0 0
-0.06364007 -0.02423384 0.03030286 0 0 0 0
-0.05547275 0.03960951 0.03002660 0 0 0 0
-0.05986843 0.03169561 0.09017986 0 0 0 0
-0.01878541 0.09069898 0.11995325 0 0 0 0
-0.06485255 0.02043956 0.01027318 0 0 0 0
-0.06155283 -0.02883173 0.02990055 0 0 0 0
-0.04093320 0.05527858 0.03986007 0 0 0 0
-0.06541055 -0.01849175 0.02998159 0 0 0 0
-0.06810428 0.00179603 0.02995724 0 0 0 0
-0.06711276 0.01192276 0.03001075 0 0 0 0
0.05667564 0.04134794 0.11722262 0 0 0 0
-0.06298457 0.02573149 0.02980925 0 0 0 0
0.00130356 -0.03810144 0.00003346 0 0 0 0
-0.06018505 0.03188300 0.03004720 0 0 0 0
0.06018443 0.03172816 0.03995688 0 0 0 0
-0.02847213 0.00026183 0.20961043 0 0 0 0
0.03150093 0.00025895 0.22950646 0 0 0 0
-0.05600464 0.04157609 0.15997541 0 0 0 0
-0.01984864 0.06557878 0.03967944 0 0 0 0
-0.01471814 0.06710131 0.04098713 0 0 0 0
-0.03728841 0.08941914 0.14053446 0 0 0 0
-0.01828093 -0.06518637 0.04004348 0 0 0 0
-0.02858170 0.06233834 0.04006938 0 0 0 0
-0.03724914 -0.05598163 0.03963937 0 0 0 0
-0.04188098 -0.05206996 0.04115256 0 0 0 0
-0.03418309 -0.05383452 0.05629279 0 0 0 0
-0.05179299 0.04468730 0.04011723 0 0 0 0
0.04503500 0.09429000 0.19988969 0 0 0 0
-0.02138776 0.06624305 0.04798194 0 0 0 0
0.01726632 0.06688134 0.04389132 0 0 0 0
-0.05215656 -0.04157843 0.04119458 0 0 0 0
-0.05567091 0.03970607 0.03995770 0 0 0 0
0.05711311 0.04166056 0.10983732 0 0 0 0
-0.06308441 0.02552864 0.04055394 0 0 0 0
-0.06387400 0.02172094 0.19387235 0 0 0 0
-0.01797946 0.08933854 0.25802240 0 0 0 0
-0.06428666 0.03084494 0.22879139 0 0 0 0
-0.06036293 0.03169531 0.03997212 0 0 0 0
-0.06755991 0.00167503 0.03995382 0 0 0 0
-0.03868615 0.09170084 0.15013291 0 0 0 0
-0.01682631 -0.06445064 0.04943059 0 0 0 0
-0.01722698 0.06781409 0.05074676 0 0 0 0
-0.05410839 -0.00530081 0.08668462 0 0 0 0
-0.06408690 -0.01553781 0.04694009 0 0 0 0
0.02181532 0.00026592 0.18004782 0 0 0 0
-0.02852171 -0.05910127 0.05003605 0 0 0 0
-0.03563878 -0.05482587 0.04931511 0 0 0 0
-0.04032937 -0.05040547 0.05077593 0 0 0 0
0.04847880 0.00393524 0.10824058 0 0 0 0
-0.00846153 0.07180710 0.05982725 0 0 0 0
-0.06492854 0.02092884 0.03001865 0 0 0 0
-0.05779275 -0.02839661 0.05006864 0 0 0 0
-0.05578980 0.03979474 0.05012866 0 0 0 0
-0.04528100 0.08992298 0.17041571 0 0 0 0
-0.06328534 -0.01184633 0.05356361 0 0 0 0
-0.06299159 0.02550895 0.05038213 0 0 0 0
-0.06619706 0.00183280 0.05022749 0 0 0 0
-0.01822890 0.06963725 0.06013236 0 0 0 0
-0.02519519 0.06754415 0.06136455 0 0 0 0
-0.00835892 0.00026855 0.16021843 0 0 0 0
-0.02803164 -0.05629968 0.05968407 0 0 0 0
-0.02970731 0.06493953 0.05950395 0 0 0 0
-0.04678231 0.05019455 0.04001730 0 0 0 0
-0.03846322 -0.04823893 0.06006638 0 0 0 0
-0.03058172 0.04231573 0.27385318 0 0 0 0
-0.05249118 0.04562474 0.05934296 0 0 0 0
-0.03192385 0.06591167 0.06785415 0 0 0 0
-0.01900250 0.09442306 0.12966605 0 0 0 0
-0.06486277 0.02087040 0.03993193 0 0 0 0
-0.05549458 -0.02684649 0.05902802 0 0 0 0
-0.05596732 0.04080648 0.06015162 0 0 0 0
-0.04001636 0.06391077 0.07959521 0 0 0 0
-0.01819365 -0.05637430 0.06963780 0 0 0 0
-0.04461959 0.08857153 0.16096751 0 0 0 0
-0.06197903 -0.00879429 0.06066882 0 0 0 0
-0.02486911 0.09736483 0.24623182 0 0 0 0
-0.06307734 -0.00063980 0.06344991 0 0 0 0
-0.06302860 0.02511909 0.06076995 0 0 0 0
-0.05290522 0.04630523 0.06723581 0 0 0 0
-0.00991481 0.07631034 0.07606522 0 0 0 0
-0.05403068 -0.02440839 0.06639767 0 0 0 0
0.04162465 0.00031860 0.22953351 0 0 0 0
0.00903400 0.08706473 0.10420135 0 0 0 0
-0.02128202 -0.05214711 0.07360900 0 0 0 0
-0.04186164 0.05550314 0.04942837 0 0 0 0
0.03745719 0.09736691 0.16292764 0 0 0 0
-0.06372669 0.01887185 0.06651948 0 0 0 0
-0.02763703 0.06891448 0.07061505 0 0 0 0
-0.03612966 -0.04576787 0.06879180 0 0 0 0
-0.03845926 0.10147606 0.19012740 0 0 0 0
-0.04455832 0.05786740 0.07165452 0 0 0 0
-0.05254626 -0.02158826 0.07301520 0 0 0 0
-0.00889496 -0.02246545 0.10433183 0 0 0 0
-0.05332895 0.06562896 0.14906356 0 0 0 0
0.06303756 0.01176870 0.06980080 0 0 0 0
-0.05387065 0.04733702 0.07295361 0 0 0 0
-0.00816864 0.07819466 0.08069838 0 0 0 0
-0.05641297 0.04185624 0.07005765 0 0 0 0
-0.01591938 0.07746656 0.08299316 0 0 0 0
-0.02730382 -0.04579357 0.07805631 0 0 0 0
-0.05893449 -0.00863659 0.07004277 0 0 0 0
-0.06154989 0.00146081 0.07010209 0 0 0 0
-0.06268753 0.01132404 0.07115280 0 0 0 0
-0.06281436 0.02235444 0.07054176 0 0 0 0
-0.06070464 0.03202858 0.06988662 0 0 0 0
0.00141994 0.09062741 0.25945824 0 0 0 0
-0.05938824 0.02235391 0.00050996 0 0 0 0
0.01124968 0.08894634 0.11024325 0 0 0 0
0.04129500 0.00031073 0.21952547 0 0 0 0
-0.01849640 -0.04822785 0.08012278 0 0 0 0
0.00179721 0.09602861 0.25432897 0 0 0 0
0.01145639 0.09269352 0.12001331 0 0 0 0
0.04187000 0.00032576 0.24993597 0 0 0 0
-0.01581242 -0.04432190 0.08584005 0 0 0 0
-0.02848033 0.07160199 0.08004013 0 0 0 0
-0.05381696 0.07740232 0.20919438 0 0 0 0
-0.01866465 0.10185268 0.14995176 0 0 0 0
-0.02970155 -0.04054995 0.08198071 0 0 0 0
-0.03448726 -0.03412014 0.08583409 0 0 0 0
-0.04575050 0.05910463 0.08054942 0 0 0 0
0.05178052 0.08174160 0.19993597 0 0 0 0
-0.01500662 0.10700509 0.23512764 0 0 0 0
-0.05037385 -0.01877972 0.08051050 0 0 0 0
-0.05272197 -0.01154571 0.08346716 0 0 0 0
0.06479967 0.01180257 0.06001728 0 0 0 0
-0.05423269 0.04822403 0.08083621 0 0 0 0
-0.01830026 0.09863746 0.14047433 0 0 0 0
-0.02759292 -0.03631014 0.08781464 0 0 0 0
-0.05719167 0.04212096 0.07993831 0 0 0 0
0.00303809 0.07665149 0.07520138 0 0 0 0
-0.05857239 0.00145299 0.08010660 0 0 0 0
-0.04421696 0.08816568 0.23753260 0 0 0 0
0.02606821 0.00685089 0.14622726 0 0 0 0
-0.01815403 0.07937786 0.09019135 0 0 0 0
0.06751523 -0.00834653 0.02012259 0 0 0 0
-0.02928939 0.07444146 0.08939625 0 0 0 0
-0.02938457 -0.03020057 0.09220926 0 0 0 0
0.06759252 -0.00816622 0.03009898 0 0 0 0
-0.03191086 0.07587662 0.09703654 0 0 0 0
0.01835196 0.07720851 0.08362256 0 0 0 0
0.04674079 0.08706112 0.16407160 0 0 0 0
0.05646123 0.04626472 0.11453275 0 0 0 0
-0.03757183 0.06962604 0.09051026 0 0 0 0
-0.04096431 -0.02064724 0.09238070 0 0 0 0
-0.01802140 0.10820260 0.22903721 0 0 0 0
0.03930605 -0.05515615 0.00216651 0 0 0 0
-0.04637069 -0.01729342 0.08901758 0 0 0 0
-0.05165597 0.05419835 0.08955367 0 0 0 0
-0.05046691 -0.00889495 0.09061840 0 0 0 0
0.02982447 0.00359824 0.27676332 0 0 0 0
-0.05269994 -0.00147475 0.09347136 0 0 0 0
-0.01849149 0.08301145 0.10011512 0 0 0 0
-0.02751419 -0.00525239 0.11698599 0 0 0 0
0.00135935 0.07516397 0.06977516 0 0 0 0
-0.05560438 0.00171509 0.08942475 0 0 0 0
-0.05788262 0.04211584 0.08982469 0 0 0 0
-0.05960106 0.02176940 0.09014788 0 0 0 0
-0.02917693 -0.01963236 0.10180550 0 0 0 0
0.03161198 0.00026319 0.19991475 0 0 0 0
-0.00866025 -0.05877285 0.07012260 0 0 0 0
-0.05423614 0.00497713 0.09658116 0 0 0 0
0.01130919 0.00029332 0.26040202 0 0 0 0
-0.03429282 0.07730237 0.10404076 0 0 0 0
-0.02714464 -0.01540343 0.10678740 0 0 0 0
0.05625904 0.04215587 0.12133548 0 0 0 0
-0.03871959 0.07225922 0.09988088 0 0 0 0
-0.00883285 -0.01171996 0.11387748 0 0 0 0
0.04048631 0.00306678 0.16142829 0 0 0 0
-0.04453789 0.06784847 0.10148130 0 0 0 0
-0.02554739 -0.05443076 0.06723986 0 0 0 0
-0.01997379 0.08558757 0.10791959 0 0 0 0
-0.04650528 -0.00711669 0.09903882 0 0 0 0
-0.02438013 0.08722284 0.11464746 0 0 0 0
-0.05741132 0.02167268 0.10030750 0 0 0 0
-0.05788480 0.04168148 0.09992522 0 0 0 0
0.04265282 -0.00020741 0.11097332 0 0 0 0
-0.04572340 0.06971829 0.11057909 0 0 0 0
-0.00922329 0.09580627 0.12742358 0 0 0 0
-0.05376603 0.05765170 0.11198004 0 0 0 0
0.01100247 0.09957127 0.24909647 0 0 0 0
-0.04437722 0.00523890 0.11669344 0 0 0 0
-0.05520945 0.02209252 0.10981647 0 0 0 0
-0.05692895 0.03176463 0.10994591 0 0 0 0
0.03585511 -0.02210723 0.09460821 0 0 0 0
-0.05723407 0.04158241 0.10999800 0 0 0 0
0.04050862 0.01307790 0.15065247 0 0 0 0
0.01191046 0.10464705 0.24128814 0 0 0 0
-0.05060123 0.06223053 0.10975089 0 0 0 0
0.06622743 0.01554635 0.03011920 0 0 0 0
-0.05553674 0.05160489 0.10988721 0 0 0 0
-0.02682598 0.08816153 0.12142037 0 0 0 0
-0.02864262 -0.00109001 0.12103997 0 0 0 0
-0.04241060 0.00805967 0.12308665 0 0 0 0
-0.05408662 0.02444025 0.11760347 0 0 0 0
0.02539426 0.07585048 0.26453903 0 0 0 0
-0.04692072 0.07158859 0.12025195 0 0 0 0
-0.05862216 0.03135384 0.00150101 0 0 0 0
-0.02194485 0.09610289 0.13666968 0 0 0 0
0.01194163 -0.00212431 0.12375667 0 0 0 0
0.02726384 0.09703963 0.14423239 0 0 0 0
-0.03800277 0.06015581 0.06027474 0 0 0 0
-0.05181379 0.02054178 0.12073934 0 0 0 0
-0.02821741 0.00369218 0.12969299 0 0 0 0
-0.02863329 0.09068464 0.13012888 0 0 0 0
0.03392936 0.06515671 0.06910793 0 0 0 0
-0.02563399 0.00625543 0.13861388 0 0 0 0
-0.01888835 -0.06061764 0.06024271 0 0 0 0
-0.03875845 0.06197342 0.07001022 0 0 0 0
-0.03206971 0.00739303 0.13384752 0 0 0 0
-0.00831607 0.00438184 0.14038505 0 0 0 0
-0.03943115 0.01014990 0.13083605 0 0 0 0
0.05383557 0.04187190 0.25134096 0 0 0 0
-0.03382971 0.06745515 0.26519188 0 0 0 0
-0.04478677 0.07845726 0.13092466 0 0 0 0
0.00139822 0.11298580 0.21996631 0 0 0 0
0.05843915 0.01213049 0.08974380 0 0 0 0
-0.05487232 0.04951862 0.09031841 0 0 0 0
-0.05264018 0.06436844 0.12961073 0 0 0 0
0.04194400 0.00063513 0.16941342 0 0 0 0
-0.00836265 -0.00681344 0.11896064 0 0 0 0
-0.04879204 0.07205546 0.12982908 0 0 0 0
-0.05278742 0.02870570 0.13101487 0 0 0 0
-0.02917237 0.09395824 0.13962775 0 0 0 0
0.06645133 0.01574923 0.20546289 0 0 0 0
-0.05574750 0.05160322 0.12994641 0 0 0 0
0.00126574 0.00027717 0.16017854 0 0 0 0
-0.03798037 0.07144172 0.26058868 0 0 0 0
-0.00861608 0.10988166 0.22997288 0 0 0 0
-0.02977397 0.00815670 0.14063242 0 0 0 0
0.01140336 0.00027669 0.16022658 0 0 0 0
0.03126530 0.09986211 0.16025113 0 0 0 0
0.01137387 0.00458401 0.14045550 0 0 0 0
-0.04169336 0.08501882 0.13897111 0 0 0 0
-0.03859941 0.01281279 0.14016539 0 0 0 0
0.06082823 0.01180408 0.07986463 0 0 0 0
-0.05529112 0.05093700 0.10022674 0 0 0 0
0.04315759 0.01048949 0.15863229 0 0 0 0
-0.05319744 0.06464907 0.13863344 0 0 0 0
-0.04295205 0.08618727 0.14747375 0 0 0 0
-0.05072323 0.07174368 0.13992041 0 0 0 0
-0.02267820 -0.06304330 0.04179735 0 0 0 0
-0.04209556 0.06519786 0.08852436 0 0 0 0
-0.03073478 0.00801794 0.14813229 0 0 0 0
-0.05223235 0.03023248 0.14016089 0 0 0 0
0.03140004 0.06035930 0.02013565 0 0 0 0
-0.02784318 0.00423619 0.15182304 0 0 0 0
0.03167014 0.06217444 0.05000106 0 0 0 0
-0.02909097 0.00058393 0.15975039 0 0 0 0
-0.05388400 0.07783467 0.20033753 0 0 0 0
-0.01890196 0.10469696 0.15982501 0 0 0 0
0.00139642 0.11424313 0.20982333 0 0 0 0
-0.05562477 0.04173549 0.12968671 0 0 0 0
-0.04414310 0.01592463 0.15280053 0 0 0 0
-0.05378635 0.06757411 0.15095930 0 0 0 0
0.02122014 0.07128901 0.26838461 0 0 0 0
-0.05166597 0.07263946 0.14977217 0 0 0 0
-0.05205748 0.03032185 0.14998551 0 0 0 0
-0.05591623 0.05185442 0.15026572 0 0 0 0
-0.06385624 0.03872229 0.20247020 0 0 0 0
-0.01787676 0.10794575 0.17059217 0 0 0 0
0.01048530 0.09774927 0.13239464 0 0 0 0
0.05030015 -0.02794030 0.06966003 0 0 0 0
-0.03546748 0.09790499 0.16176236 0 0 0 0
0.02147023 -0.04848446 0.00003348 0 0 0 0
-0.04455314 0.00408721 0.16409653 0 0 0 0
0.02139710 0.03166614 0.27859983 0 0 0 0
-0.05277660 0.02898332 0.15813892 0 0 0 0
-0.06299108 -0.02162076 0.04239178 0 0 0 0
-0.04846311 0.08187513 0.15995769 0 0 0 0
-0.04639964 0.01250928 0.16107395 0 0 0 0
-0.05246183 0.07317955 0.15963329 0 0 0 0
0.05624815 0.04009781 0.16558526 0 0 0 0
-0.00864661 0.11174238 0.18006891 0 0 0 0
-0.02845855 0.06365900 0.05006789 0 0 0 0
-0.05384851 0.02609286 0.16441067 0 0 0 0
-0.05424329 0.06890424 0.16041794 0 0 0 0
-0.05657877 0.05192110 0.16016802 0 0 0 0
-0.00812145 0.09969307 0.24945320 0 0 0 0
-0.01861105 -0.06554893 0.03007198 0 0 0 0
0.05086845 -0.01820915 0.08000240 0 0 0 0
-0.04164879 0.09464137 0.16929799 0 0 0 0
-0.01878584 0.10953832 0.17995113 0 0 0 0
-0.06610207 0.01178069 0.05014378 0 0 0 0
-0.00850161 0.04149421 0.00003371 0 0 0 0
0.03155708 0.10281880 0.22981367 0 0 0 0
-0.05250830 0.01924396 0.16668387 0 0 0 0
-0.01867906 0.11094834 0.18997835 0 0 0 0
-0.05514763 0.04172039 0.15013066 0 0 0 0
0.04110603 0.02159614 0.26958349 0 0 0 0
-0.05104114 0.01129391 0.16845074 0 0 0 0
-0.00833959 0.07951993 0.26698980 0 0 0 0
-0.05568555 -0.01765440 0.06944817 0 0 0 0
-0.04975665 0.08206306 0.16999243 0 0 0 0
0.03113968 0.00026169 0.20959821 0 0 0 0
-0.00946365 -0.06228897 0.06285749 0 0 0 0
-0.05396501 0.00418923 0.17444678 0 0 0 0
-0.05646297 0.06170172 0.17002831 0 0 0 0
-0.05570707 0.06179773 0.16001470 0 0 0 0
0.01551207 0.06661917 0.04521378 0 0 0 0
-0.03157618 0.10572843 0.18895127 0 0 0 0
0.01230473 -0.02212973 0.10412217 0 0 0 0
0.00153305 0.00032648 0.24992456 0 0 0 0
-0.05673803 0.03143285 0.17001891 0 0 0 0
0.02534251 -0.06289294 0.00930634 0 0 0 0
-0.05104982 0.01115711 0.11060444 0 0 0 0
-0.04511966 0.02145970 0.26662937 0 0 0 0
-0.00874314 0.10056875 0.14007525 0 0 0 0
0.02146764 0.10404497 0.15998629 0 0 0 0
-0.04252911 0.09551404 0.17927818 0 0 0 0
-0.04991540 0.02178708 0.26141021 0 0 0 0
-0.00855543 0.10404835 0.14996168 0 0 0 0
-0.05727090 0.02179027 0.25086862 0 0 0 0
0.05754923 -0.03504679 0.03882264 0 0 0 0
-0.04831610 -0.02848376 0.00003352 0 0 0 0
-0.04297081 0.09611540 0.18962331 0 0 0 0
0.00133464 0.00026166 0.20960426 0 0 0 0
-0.05433446 0.03335429 0.12939689 0 0 0 0
0.02145143 0.00025896 0.22950871 0 0 0 0
0.05187326 0.05154829 0.25097284 0 0 0 0
-0.02696277 0.10803057 0.19028442 0 0 0 0
-0.05095511 0.08171578 0.17988718 0 0 0 0
-0.04089911 -0.03067275 0.08222720 0 0 0 0
0.00169811 0.10786524 0.16090266 0 0 0 0
0.02557969 -0.06294647 0.02019994 0 0 0 0
-0.04760235 0.01203784 0.11974207 0 0 0 0
0.04756090 0.05762800 0.08257698 0 0 0 0
-0.05712992 0.00277130 0.18032758 0 0 0 0
0.06652912 0.01675809 0.02335510 0 0 0 0
0.04954107 -0.04653003 0.02986613 0 0 0 0
-0.05837329 0.01182673 0.18007657 0 0 0 0
-0.05934050 0.02167485 0.18027680 0 0 0 0
0.00132619 0.00026302 0.19981927 0 0 0 0
-0.05385348 0.03524464 0.13966398 0 0 0 0
-0.02747101 0.10849026 0.20001967 0 0 0 0
-0.05985539 0.00166556 0.18951774 0 0 0 0
0.00131783 0.00026432 0.19014463 0 0 0 0
-0.05384456 0.03475785 0.15025148 0 0 0 0
-0.02729384 0.10847853 0.20966746 0 0 0 0
-0.05467972 0.06104734 0.14021711 0 0 0 0
0.01544900 0.06651313 0.02988205 0 0 0 0
-0.03232345 0.10600024 0.21030571 0 0 0 0
-0.06371253 0.02916874 0.19415604 0 0 0 0
-0.04835309 0.00027197 0.19976230 0 0 0 0
-0.06406864 0.00346991 0.19321497 0 0 0 0
0.00134320 0.00026025 0.21950157 0 0 0 0
0.02157687 0.00025762 0.23963633 0 0 0 0
0.05557117 0.05324261 0.24208331 0 0 0 0
-0.02534509 0.10747004 0.18128927 0 0 0 0
-0.06340002 0.03533526 0.19578716 0 0 0 0
0.02120088 0.00570778 0.14017852 0 0 0 0
0.05559989 0.05157452 0.14010482 0 0 0 0
-0.06733311 -0.00813024 0.01022780 0 0 0 0
-0.00642420 0.08666190 0.10511461 0 0 0 0
-0.05144827 0.08263207 0.19997536 0 0 0 0
0.01761068 -0.04399560 0.08556683 0 0 0 0
-0.03829024 0.00278467 0.16022600 0 0 0 0
0.02986120 0.01166485 0.27659485 0 0 0 0
-0.03071557 0.10544052 0.22041641 0 0 0 0
-0.05974273 0.03152051 0.17980289 0 0 0 0
0.01126524 -0.01749938 0.10849406 0 0 0 0
0.00102533 0.00032876 0.23963156 0 0 0 0
-0.04060776 0.05444064 0.02009449 0 0 0 0
-0.04654172 0.09163523 0.20985332 0 0 0 0
0.04737606 0.07843724 0.14100036 0 0 0 0
-0.06391649 0.01156079 0.19317552 0 0 0 0
-0.00867897 -0.06746051 0.01983429 0 0 0 0
-0.04400933 0.08764104 0.15256369 0 0 0 0
0.04040764 0.10073350 0.20987366 0 0 0 0
-0.06532416 0.02166589 0.19998229 0 0 0 0
0.02118514 0.00199675 0.12927559 0 0 0 0
-0.06666718 -0.00805156 0.00186190 0 0 0 0
-0.00880571 0.08496368 0.09940614 0 0 0 0
-0.05141711 0.08215062 0.20999408 0 0 0 0
-0.06582923 0.00301365 0.20025101 0 0 0 0
-0.04403261 -0.02414945 0.08637016 0 0 0 0
0.05156195 0.08166517 0.18996692 0 0 0 0
-0.06574558 0.01151614 0.19981143 0 0 0 0
0.01126985 0.00026174 0.20960230 0 0 0 0
0.06671004 -0.01412550 0.03004030 0 0 0 0
0.04812911 -0.01598448 0.08749097 0 0 0 0
-0.04284325 0.09567569 0.22128882 0 0 0 0
0.01171439 0.10367014 0.14998719 0 0 0 0
-0.05886232 0.06193404 0.20989263 0 0 0 0
-0.03486191 0.00618509 0.15458672 0 0 0 0
-0.02862513 0.10383954 0.22992496 0 0 0 0
-0.04059892 0.05463220 0.02998576 0 0 0 0
-0.04604340 0.09113239 0.21979423 0 0 0 0
-0.06304159 0.04461091 0.20970820 0 0 0 0
0.05736266 -0.02506918 0.05714110 0 0 0 0
0.06717176 0.01137557 0.21004130 0 0 0 0
0.05132046 0.02182305 0.00003369 0 0 0 0
-0.06411370 0.03983126 0.21001378 0 0 0 0
-0.06541304 0.03169416 0.20999476 0 0 0 0
-0.06655074 0.02173650 0.20997924 0 0 0 0
-0.06684089 0.00230746 0.21000583 0 0 0 0
-0.01855033 0.00026711 0.17003533 0 0 0 0
-0.05832720 0.06175647 0.18997426 0 0 0 0
-0.03002417 0.10502839 0.17945297 0 0 0 0
-0.06728449 0.01146635 0.20995142 0 0 0 0
0.01144022 0.00026791 0.23969100 0 0 0 0
-0.03801527 0.08098462 0.12029559 0 0 0 0
0.06660910 -0.01369448 0.03563649 0 0 0 0
-0.04193580 0.09456524 0.23088472 0 0 0 0
-0.06400416 0.03897832 0.21922141 0 0 0 0
-0.06292581 0.04364211 0.22056954 0 0 0 0
-0.06523531 0.03179096 0.21995780 0 0 0 0
0.02167500 0.09375238 0.12992467 0 0 0 0
0.05643843 0.01676753 0.17707221 0 0 0 0
-0.06360677 0.03752385 0.22599912 0 0 0 0
-0.04967358 -0.02867037 0.07028990 0 0 0 0
0.04976363 0.08189925 0.16994265 0 0 0 0
-0.06754629 0.01182340 0.21975470 0 0 0 0
-0.06662165 0.02181795 0.21997596 0 0 0 0
-0.05386847 0.06727725 0.23523447 0 0 0 0
-0.01593954 -0.03362538 0.09552568 0 0 0 0
-0.04543937 -0.03589932 0.06872609 0 0 0 0
-0.06716198 0.00253188 0.21992883 0 0 0 0
-0.03983938 0.09206122 0.24013425 0 0 0 0
-0.05676140 0.06175434 0.22988887 0 0 0 0
0.05143555 -0.01827119 0.00003356 0 0 0 0
-0.03692207 0.08892579 0.24793866 0 0 0 0
-0.06300085 0.03398379 0.23256561 0 0 0 0
-0.06535093 0.02170121 0.22981784 0 0 0 0
-0.04616999 -0.02705477 0.07899910 0 0 0 0
0.05085173 0.08179662 0.17990172 0 0 0 0
-0.06622979 0.01181568 0.22992153 0 0 0 0
-0.04473139 0.07955915 0.24765329 0 0 0 0
-0.06393258 0.02036424 0.23634870 0 0 0 0
-0.04903401 0.08187810 0.22989565 0 0 0 0
-0.06741433 -0.00833536 0.02019858 0 0 0 0
-0.04689082 0.08169615 0.15002160 0 0 0 0
-0.04292765 0.07540511 0.25416452 0 0 0 0
-0.05347965 -0.03313588 0.05425491 0 0 0 0
0.04902090 0.08160432 0.22951850 0 0 0 0
-0.06434115 0.01171125 0.23755595 0 0 0 0
0.01162828 -0.06693980 0.00969291 0 0 0 0
-0.05940068 0.04150494 0.23992021 0 0 0 0
-0.06109317 0.03145183 0.24027947 0 0 0 0
-0.05457867 0.04990171 0.24733821 0 0 0 0
0.01058014 0.06716870 0.00304305 0 0 0 0
0.04146012 0.00188158 0.00003357 0 0 0 0
-0.04419574 0.06880127 0.25632867 0 0 0 0
-0.05074117 0.08179421 0.21990186 0 0 0 0
-0.06751784 -0.00828028 0.02990669 0 0 0 0
-0.04583048 0.08030827 0.14033613 0 0 0 0
0.03771329 0.00612532 0.12648720 0 0 0 0
-0.05137804 0.05181544 0.25247097 0 0 0 0
0.00125897 0.09812439 0.13141356 0 0 0 0
-0.03842210 0.00027117 0.20961975 0 0 0 0
0.01157735 -0.06693370 0.01978849 0 0 0 0
-0.05528508 0.04112181 0.24964347 0 0 0 0
0.00136600 -0.06775397 0.03990277 0 0 0 0
-0.05261444 0.04263658 0.25387302 0 0 0 0
-0.05618445 0.03141838 0.25087264 0 0 0 0
-0.05385517 0.02908225 0.25550354 0 0 0 0
0.04021604 0.00319852 0.11889798 0 0 0 0
0.05742392 0.03839265 0.06025484 0 0 0 0
-0.04646969 0.05120138 0.26018482 0 0 0 0
0.05716410 0.03786184 0.05018003 0 0 0 0
0.04940896 0.06124949 0.25057319 0 0 0 0
-0.04359648 0.05017510 0.26518801 0 0 0 0
0.02602656 0.04574770 0.27488285 0 0 0 0
0.05807639 -0.03558687 0.03007167 0 0 0 0
-0.05417930 0.02073173 0.25610623 0 0 0 0
0.00167310 -0.06800798 0.01000849 0 0 0 0
-0.04801117 0.04165193 0.26070425 0 0 0 0
-0.05451809 0.01136150 0.25662357 0 0 0 0
0.04200922 -0.04897115 0.05029314 0 0 0 0
-0.04418005 0.04009984 0.26571289 0 0 0 0
-0.03850215 0.00026721 0.17008135 0 0 0 0
-0.05470049 0.00340286 0.25672978 0 0 0 0
-0.04929964 0.03169163 0.26090902 0 0 0 0
-0.04011847 0.06259028 0.26323169 0 0 0 0
0.06516735 -0.01939064 0.01004056 0 0 0 0
0.02179693 0.08204500 0.26205745 0 0 0 0
-0.04464005 0.03142320 0.26624015 0 0 0 0
-0.05543401 0.03942265 0.00989223 0 0 0 0
-0.04985463 0.00291228 0.26134250 0 0 0 0
0.01255526 0.10591940 0.15798415 0 0 0 0
-0.03424463 0.09686188 0.15399510 0 0 0 0
-0.01919428 -0.02154296 0.10351850 0 0 0 0
0.00137342 0.10004709 0.24971357 0 0 0 0
-0.05026754 0.01171668 0.26184148 0 0 0 0
-0.03605367 0.05851886 0.04024704 0 0 0 0
-0.03564226 0.05790759 0.01025693 0 0 0 0
0.00164239 0.00028880 0.26008004 0 0 0 0
-0.06052711 0.03203526 0.08008323 0 0 0 0
-0.03828947 0.03164529 0.27110258 0 0 0 0
-0.05526131 0.03918923 0.00221711 0 0 0 0
-0.04553506 0.00361562 0.26691571 0 0 0 0
-0.04538571 0.01167414 0.26688352 0 0 0 0
0.01144400 0.11353911 0.19994971 0 0 0 0
-0.06071106 0.01182171 0.07996780 0 0 0 0
0.03158303 -0.06010214 0.02007458 0 0 0 0
-0.02832606 -0.04799091 0.00003341 0 0 0 0
0.05684966 0.02537389 0.10664855 0 0 0 0
0.04629423 0.02529129 0.26475069 0 0 0 0
-0.05286694 0.00852173 0.10323026 0 0 0 0
0.02215243 -0.05902556 0.00044431 0 0 0 0
0.03119634 0.05971848 0.00236027 0 0 0 0
0.03403839 0.07520463 0.09854096 0 0 0 0
0.05167589 0.04161165 0.00166597 0 0 0 0
0.04923702 -0.04622181 0.00209369 0 0 0 0
0.04236935 -0.04908293 0.00089422 0 0 0 0
0.01999396 -0.06461377 0.00207282 0 0 0 0
0.05949873 0.03122137 0.00220163 0 0 0 0
-0.01834009 0.00030484 0.19985271 0 0 0 0
0.06220922 0.02153587 0.00162777 0 0 0 0
-0.01839117 0.00528312 0.14030567 0 0 0 0
0.06694730 0.01046262 0.00278898 0 0 0 0
0.05515949 0.04168673 0.15022929 0 0 0 0
0.06731394 -0.00794186 0.00267641 0 0 0 0
-0.02937029 -0.06133670 0.00991747 0 0 0 0
-0.04878801 0.00266426 0.16990209 0 0 0 0
0.02662005 0.09740561 0.24569888 0 0 0 0
0.01120503 0.00026315 0.19981740 0 0 0 0
0.06664883 -0.01414101 0.00278100 0 0 0 0
0.00136308 0.08984832 0.11010312 0 0 0 0
-0.04538787 0.06081200 0.25823361 0 0 0 0
-0.03846581 0.10093474 0.21973082 0 0 0 0
0.03113768 0.06139738 0.26850647 0 0 0 0
-0.01819263 -0.06530441 0.00191958 0 0 0 0
0.02156061 0.06458031 0.01006390 0 0 0 0
0.03175100 0.06013407 0.01004983 0 0 0 0
0.02063955 -0.06467924 0.00985840 0 0 0 0
-0.05284547 0.07443136 0.16945025 0 0 0 0
0.04223383 0.05319605 0.00996604 0 0 0 0
-0.06027056 0.03176493 0.05001971 0 0 0 0
0.04778523 0.04819854 0.01029595 0 0 0 0
0.03574354 0.07650433 0.10646182 0 0 0 0
0.05292778 0.04236763 0.00990903 0 0 0 0
-0.01851103 0.11033836 0.21992473 0 0 0 0
-0.00832106 0.06750798 0.02998090 0 0 0 0
0.05977745 0.03199489 0.00994255 0 0 0 0
0.05780802 -0.03566952 0.01011023 0 0 0 0
0.04451444 0.09340917 0.22013183 0 0 0 0
-0.01327107 0.06670474 0.01247754 0 0 0 0
-0.06251093 0.01239681 0.24245000 0 0 0 0
0.04960995 -0.04642939 0.00993860 0 0 0 0
0.04439086 -0.05142401 0.01001662 0 0 0 0
0.06417568 0.02166163 0.01021366 0 0 0 0
-0.05178035 0.06332893 0.11959387 0 0 0 0
0.01549929 0.10652696 0.16659042 0 0 0 0
0.04038198 0.01382669 0.14002022 0 0 0 0
-0.05766239 0.05160724 0.16991201 0 0 0 0
0.06618556 0.01557236 0.01023025 0 0 0 0
0.06793832 0.00166473 0.01015484 0 0 0 0
0.05509935 0.04144390 0.14025423 0 0 0 0
0.06743191 -0.00814162 0.01015498 0 0 0 0
0.01114094 0.00026449 0.19014290 0 0 0 0
0.06667030 -0.01433098 0.01016889 0 0 0 0
-0.01856687 -0.06551033 0.00984183 0 0 0 0
-0.04790824 -0.03807957 0.05980520 0 0 0 0
0.02157873 0.06454627 0.02002274 0 0 0 0
-0.06415984 0.02012565 0.05960821 0 0 0 0
0.04016064 0.10035741 0.19029571 0 0 0 0
0.01103703 0.07928184 0.26670182 0 0 0 0
0.02087146 -0.06462793 0.01995740 0 0 0 0
0.02162544 0.00172282 0.00003357 0 0 0 0
0.04769858 0.04811161 0.00284552 0 0 0 0
-0.03762297 -0.01718642 0.09891529 0 0 0 0
0.04199673 0.05342157 0.01994089 0 0 0 0
-0.06051747 0.03198820 0.05987829 0 0 0 0
0.04796945 0.04808179 0.02005256 0 0 0 0
0.05328383 0.04208256 0.02005450 0 0 0 0
0.04436395 -0.05137813 0.02014806 0 0 0 0
0.03546099 -0.00243588 0.11441854 0 0 0 0
0.01140414 0.04160760 0.27957162 0 0 0 0
-0.02621534 0.10782176 0.21901159 0 0 0 0
0.03946759 -0.05539115 0.01988913 0 0 0 0
0.05993075 0.03180442 0.01993945 0 0 0 0
0.05691113 0.02295891 0.17413519 0 0 0 0
0.03148715 -0.05854240 0.00145994 0 0 0 0
-0.05824229 0.01173372 0.25072959 0 0 0 0
0.04955911 -0.04641321 0.01992103 0 0 0 0
0.03145264 -0.05727594 0.04992481 0 0 0 0
0.06430633 0.02159289 0.02002083 0 0 0 0
0.03954086 -0.05531559 0.00995837 0 0 0 0
-0.05290792 -0.04257362 0.02983320 0 0 0 0
0.06527014 -0.01938433 0.02036289 0 0 0 0
-0.01822137 0.00026571 0.18005472 0 0 0 0
-0.05753049 0.06151257 0.18000653 0 0 0 0
0.02141136 0.06468827 0.03012506 0 0 0 0
0.02090269 -0.06470027 0.02999334 0 0 0 0
0.04035804 0.10086702 0.20002195 0 0 0 0
-0.05326411 0.02713991 0.12467410 0 0 0 0
-0.03531886 0.06808232 0.08126371 0 0 0 0
0.04788257 0.08928617 0.20958307 0 0 0 0
0.03741782 0.05717934 0.03029758 0 0 0 0
-0.04067073 0.05445408 0.00995515 0 0 0 0
-0.04677091 0.09155586 0.19995371 0 0 0 0
-0.04537909 0.01436911 0.12884453 0 0 0 0
0.02578769 -0.06284603 0.03014876 0 0 0 0
0.04496648 0.01853020 0.14060701 0 0 0 0
0.01146310 0.10959134 0.22995096 0 0 0 0
0.03164031 -0.06014945 0.02999006 0 0 0 0
0.04879395 0.02324579 0.13991480 0 0 0 0
-0.03808491 0.10034411 0.18012567 0 0 0 0
0.04236767 0.05329629 0.02993961 0 0 0 0
0.04803680 0.04827951 0.03013846 0 0 0 0
0.04440700 -0.05141535 0.03025863 0 0 0 0
0.05314042 0.04235383 0.03001921 0 0 0 0
0.05703893 0.03762891 0.03071961 0 0 0 0
-0.01844457 0.00027232 0.27040240 0 0 0 0
0.02973142 -0.05539598 0.05918244 0 0 0 0
0.06432433 0.02180560 0.02997312 0 0 0 0
-0.04396549 -0.03357771 0.07594518 0 0 0 0
-0.06619158 0.00267756 0.22966731 0 0 0 0
0.06529565 -0.01941155 0.02997309 0 0 0 0
0.06802294 0.00169303 0.03013526 0 0 0 0
0.06798105 0.00190464 0.02012608 0 0 0 0
0.01153199 -0.06666717 0.04001145 0 0 0 0
0.05970285 0.03172810 0.09017602 0 0 0 0
-0.02866645 0.00026994 0.21947034 0 0 0 0
0.01119006 0.06778780 0.04029253 0 0 0 0
0.02021455 -0.06447086 0.03977868 0 0 0 0
0.03863555 0.09838362 0.17059408 0 0 0 0
0.03162161 0.06101371 0.03997893 0 0 0 0
-0.06033529 0.05174305 0.19018188 0 0 0 0
-0.03432809 0.06695413 0.07423445 0 0 0 0
0.04744874 0.08858250 0.21938999 0 0 0 0
-0.03835420 0.01173146 0.27218461 0 0 0 0
0.03788141 0.05758898 0.04040768 0 0 0 0
0.04511601 0.01855786 0.14928341 0 0 0 0
0.01130892 0.11149466 0.18001255 0 0 0 0
0.03154881 -0.05932350 0.04012812 0 0 0 0
0.03877569 -0.05495648 0.03941856 0 0 0 0
-0.01820814 0.01141353 0.00003353 0 0 0 0
0.04360032 -0.05079800 0.04044126 0 0 0 0
0.05335515 0.04257416 0.04005273 0 0 0 0
0.05704424 0.03749787 0.03998153 0 0 0 0
-0.05472039 -0.03500530 0.04825617 0 0 0 0
0.05924673 -0.01799730 0.05967456 0 0 0 0
0.01159779 0.06907642 0.05000652 0 0 0 0
-0.05062455 -0.03940304 0.05062684 0 0 0 0
-0.06455249 0.00305773 0.23761801 0 0 0 0
0.06465749 -0.01820820 0.03998704 0 0 0 0
-0.02864461 0.08271746 0.11000075 0 0 0 0
0.04903057 0.04127390 0.25901559 0 0 0 0
0.06651643 -0.00402842 0.04557049 0 0 0 0
0.05668194 -0.03356025 0.04594025 0 0 0 0
-0.05644643 0.04184518 0.11974418 0 0 0 0
0.01131066 -0.06556538 0.05000297 0 0 0 0
-0.03029960 0.08525768 0.11850876 0 0 0 0
0.06699881 -0.00768605 0.03910102 0 0 0 0
0.01949692 0.06746428 0.05112735 0 0 0 0
0.02370485 0.06563707 0.04908520 0 0 0 0
0.03749527 -0.05407177 0.04772163 0 0 0 0
0.06168864 -0.02858091 0.01035360 0 0 0 0
0.01831824 -0.06398945 0.04873895 0 0 0 0
-0.06446162 0.02081133 0.04973948 0 0 0 0
0.03947119 0.09960141 0.18031807 0 0 0 0
-0.03457477 -0.02396904 0.09608589 0 0 0 0
-0.06113190 0.05220740 0.19996324 0 0 0 0
0.03859439 0.05815415 0.05062102 0 0 0 0
0.01147373 -0.06702029 0.03002554 0 0 0 0
0.06676740 0.00281362 0.04718739 0 0 0 0
0.04765808 -0.04451388 0.04792858 0 0 0 0
-0.03448353 -0.01362114 0.10587849 0 0 0 0
0.04359074 0.05401070 0.04978897 0 0 0 0
0.06776056 0.00160928 0.00250128 0 0 0 0
0.00998990 -0.06417020 0.05786506 0 0 0 0
-0.05657106 -0.03769799 0.03011251 0 0 0 0
0.05351784 0.04282897 0.05002614 0 0 0 0
0.04142182 0.01180270 0.00003362 0 0 0 0
0.05536337 -0.03133389 0.05193487 0 0 0 0
-0.04284639 -0.05274945 0.02023112 0 0 0 0
0.05150099 -0.03835111 0.05008283 0 0 0 0
0.06023364 0.03174089 0.05002165 0 0 0 0
-0.06190718 0.04200529 0.23005557 0 0 0 0
0.01140435 -0.06627341 0.00162343 0 0 0 0
0.01048484 0.06723873 0.01992931 0 0 0 0
0.06215801 -0.01848914 0.04999117 0 0 0 0
0.01526158 0.06643882 0.01979525 0 0 0 0
-0.02521439 0.09735161 0.14338502 0 0 0 0
-0.05506650 0.06173159 0.14997153 0 0 0 0
0.06075164 -0.02825342 0.04012771 0 0 0 0
0.06716069 0.01076730 0.02992158 0 0 0 0
-0.01865736 0.00280805 0.14965700 0 0 0 0
0.05864048 -0.02723763 0.04944032 0 0 0 0
0.01158093 0.07141758 0.05987696 0 0 0 0
0.03385714 -0.05131493 0.06123347 0 0 0 0
0.06497355 -0.00824612 0.05012861 0 0 0 0
-0.00871196 0.00031624 0.21955305 0 0 0 0
0.02158187 -0.05929456 0.06019449 0 0 0 0
-0.00821393 0.00141807 0.00003352 0 0 0 0
-0.03829532 0.04161889 0.26980817 0 0 0 0
-0.06284702 0.04261362 0.19936964 0 0 0 0
0.03901836 0.09871715 0.22906299 0 0 0 0
0.03200496 0.06392131 0.05985499 0 0 0 0
-0.03560479 0.00554547 0.12737273 0 0 0 0
0.00168440 0.10462996 0.14987472 0 0 0 0
-0.03766919 -0.02727929 0.08919884 0 0 0 0
-0.00830466 0.08151419 0.09001369 0 0 0 0
0.03975433 0.05908646 0.06036451 0 0 0 0
0.05770454 0.04178877 0.17001881 0 0 0 0
-0.06314739 0.02520488 0.01991380 0 0 0 0
0.05433157 0.02111740 0.16926362 0 0 0 0
0.04465320 0.05453714 0.05972243 0 0 0 0
0.04142424 0.05192859 0.00179898 0 0 0 0
-0.06487732 0.02077298 0.01997176 0 0 0 0
-0.05847465 0.03166956 0.10005929 0 0 0 0
0.04932459 0.04983401 0.06017726 0 0 0 0
-0.04288462 -0.05268746 0.03015383 0 0 0 0
0.00140110 0.05136551 0.00003380 0 0 0 0
0.04907774 -0.03679444 0.05931152 0 0 0 0
0.04457277 -0.04107042 0.06128816 0 0 0 0
-0.00843078 0.00032157 0.22955842 0 0 0 0
0.02064619 -0.05566549 0.06884985 0 0 0 0
0.06429382 0.02182534 0.04003642 0 0 0 0
0.02754521 -0.05382478 0.06629496 0 0 0 0
0.05356996 -0.02898888 0.06042801 0 0 0 0
0.05581693 -0.02167636 0.06358191 0 0 0 0
0.01159999 0.07419008 0.06999436 0 0 0 0
0.04080435 0.07080276 0.10039973 0 0 0 0
0.05622169 0.02932237 0.11334350 0 0 0 0
-0.06365826 -0.02421829 0.01277593 0 0 0 0
0.06039601 0.03198509 0.06001824 0 0 0 0
-0.01856477 0.00025473 0.26025859 0 0 0 0
0.06353167 0.02191592 0.05994152 0 0 0 0
0.06421148 0.00172074 0.06013303 0 0 0 0
0.06229764 -0.00828558 0.06014622 0 0 0 0
-0.00884877 0.00025483 0.26025620 0 0 0 0
0.01154144 -0.05792252 0.07017829 0 0 0 0
-0.03872918 0.00026581 0.18005836 0 0 0 0
0.02333273 -0.05170375 0.07249662 0 0 0 0
-0.00874783 0.00025752 0.23964334 0 0 0 0
0.01766894 -0.05351311 0.07511547 0 0 0 0
-0.05597357 -0.03692353 0.03956661 0 0 0 0
0.05416559 0.04335229 0.05983179 0 0 0 0
0.02960465 0.06819728 0.07087912 0 0 0 0
0.04741786 -0.03452355 0.06717961 0 0 0 0
-0.01847200 0.06533185 0.01006355 0 0 0 0
-0.06169520 0.04162408 0.19010903 0 0 0 0
0.03724412 0.09759282 0.23551825 0 0 0 0
0.00166959 0.06805028 0.00997197 0 0 0 0
-0.03774854 0.00173423 0.11916752 0 0 0 0
0.03152695 -0.04832239 0.07007600 0 0 0 0
-0.04302723 0.09631573 0.21164219 0 0 0 0
0.05796967 -0.03570051 0.01983926 0 0 0 0
0.01314992 0.07608038 0.07699155 0 0 0 0
-0.04248612 0.07588939 0.11733533 0 0 0 0
0.04703542 0.08786485 0.17143483 0 0 0 0
0.04090638 0.06045916 0.07032242 0 0 0 0
0.06747759 0.00174886 0.04012472 0 0 0 0
0.05750569 -0.01557272 0.06749404 0 0 0 0
0.06546590 0.01191076 0.19914116 0 0 0 0
-0.05570132 0.05151320 0.14007564 0 0 0 0
0.04195553 -0.03863422 0.07029144 0 0 0 0
0.04563364 0.05545816 0.06894555 0 0 0 0
0.05008092 0.05094610 0.07026464 0 0 0 0
0.00111360 0.10784481 0.23715556 0 0 0 0
-0.02863752 0.10096654 0.16001217 0 0 0 0
0.04545209 -0.03193327 0.07326971 0 0 0 0
0.03221958 -0.02915671 0.09111893 0 0 0 0
0.06586283 0.01225996 0.05075007 0 0 0 0
0.04114476 0.00031208 0.20953244 0 0 0 0
0.03223271 -0.03936091 0.08086731 0 0 0 0
0.05772065 0.03921084 0.07030450 0 0 0 0
0.06402235 0.02180562 0.04988161 0 0 0 0
-0.01874853 0.00025903 0.22951771 0 0 0 0
0.06276224 0.02191354 0.06994741 0 0 0 0
0.06167858 0.00149770 0.06995267 0 0 0 0
0.00148261 0.06790657 0.00279508 0 0 0 0
-0.04048644 -0.00117480 0.11248459 0 0 0 0
0.02897579 -0.04518170 0.07732512 0 0 0 0
0.02114713 -0.04742213 0.07945386 0 0 0 0
0.02951978 0.02152448 0.27636179 0 0 0 0
-0.02568641 0.08794187 0.25635532 0 0 0 0
-0.03875136 -0.00853165 0.00003351 0 0 0 0
-0.04747587 -0.04735575 0.03968819 0 0 0 0
0.02351936 -0.04185520 0.08374000 0 0 0 0
0.05483397 0.04414031 0.06968313 0 0 0 0
0.03155344 0.07012773 0.08018165 0 0 0 0
-0.01829259 0.07236533 0.07003342 0 0 0 0
0.04781274 0.07018167 0.24792203 0 0 0 0
-0.05563016 0.05215910 0.11996505 0 0 0 0
0.06621793 0.01555868 0.02027529 0 0 0 0
0.02957411 -0.02531986 0.09666228 0 0 0 0
0.01076462 -0.04447608 0.08622348 0 0 0 0
0.00142150 0.11045048 0.23007870 0 0 0 0
-0.02876616 0.10365227 0.16995452 0 0 0 0
0.04271439 -0.02926644 0.08092616 0 0 0 0
0.05670034 0.04737462 0.10035137 0 0 0 0
0.05118735 0.05203857 0.08003837 0 0 0 0
0.05714380 0.03223706 0.10917185 0 0 0 0
0.03732365 0.05726075 0.01023867 0 0 0 0
0.05480098 0.03196611 0.25251219 0 0 0 0
0.03809274 -0.04473062 0.06763215 0 0 0 0
-0.01837049 0.00348007 0.28077000 0 0 0 0
0.06152333 0.02173947 0.07973140 0 0 0 0
0.03518832 -0.04250132 0.07373952 0 0 0 0
0.02119066 -0.03775882 0.08903970 0 0 0 0
0.02138981 0.02168128 0.27942684 0 0 0 0
-0.05138976 0.08217831 0.18991251 0 0 0 0
-0.06176483 -0.01901623 0.05065877 0 0 0 0
0.05755590 0.05152542 0.16997717 0 0 0 0
0.02764778 0.07711269 0.09373384 0 0 0 0
-0.05699375 0.05173202 0.23999050 0 0 0 0
-0.06505916 -0.00802111 0.04980576 0 0 0 0
-0.00830167 0.02134582 0.00003366 0 0 0 0
0.03140658 0.08136307 0.11012314 0 0 0 0
0.01143612 0.04144531 0.00003372 0 0 0 0
-0.04281616 -0.04237482 0.06312592 0 0 0 0
0.02497794 0.07591449 0.08745530 0 0 0 0
-0.04909741 0.05213814 0.06991880 0 0 0 0
0.05372744 -0.03965105 0.04052100 0 0 0 0
0.04105144 0.00353667 0.27000099 0 0 0 0
0.05726952 0.03726767 0.01977643 0 0 0 0
0.03942520 -0.02636557 0.08825472 0 0 0 0
0.05458305 -0.00915062 0.08100527 0 0 0 0
-0.05544560 0.07170378 0.19001843 0 0 0 0
-0.00836690 0.09029254 0.25918478 0 0 0 0
-0.03789562 0.05139133 0.26809898 0 0 0 0
0.04065641 0.03158689 0.26920906 0 0 0 0
0.04755785 0.06794700 0.11141230 0 0 0 0
-0.01917815 0.07513002 0.07909480 0 0 0 0
0.05531039 0.03156416 0.12006646 0 0 0 0
0.03913512 0.06879260 0.09085147 0 0 0 0
0.04874647 0.01315618 0.11916099 0 0 0 0
0.04130644 0.04168440 0.00003374 0 0 0 0
-0.04073723 -0.01062351 0.10243413 0 0 0 0
-0.05038285 0.00081061 0.10059848 0 0 0 0
0.04289934 -0.01926679 0.09100714 0 0 0 0
0.06616575 0.01474897 0.04071141 0 0 0 0
0.03577143 -0.03272992 0.08435306 0 0 0 0
0.02167710 0.00027266 0.17006260 0 0 0 0
0.05516551 0.05228607 0.10991575 0 0 0 0
0.02140382 0.06154346 0.27228439 0 0 0 0
0.01146393 -0.02810768 0.09962947 0 0 0 0
0.05692181 0.06827074 0.20021826 0 0 0 0
-0.01844311 0.04211448 0.00003377 0 0 0 0
0.05459430 0.00048102 0.09080109 0 0 0 0
-0.01857850 0.00025618 0.24979548 0 0 0 0
0.05971267 0.02174798 0.09004126 0 0 0 0
-0.05960000 0.05180745 0.22990850 0 0 0 0
0.02226477 0.07437482 0.07968620 0 0 0 0
0.03744862 0.08726782 0.13393046 0 0 0 0
0.05672989 0.05149180 0.16274939 0 0 0 0
0.03012033 0.07862210 0.10095634 0 0 0 0
0.05480443 0.01089121 0.10063282 0 0 0 0
0.04584163 -0.02191527 0.08367345 0 0 0 0
0.05636943 0.04670233 0.09626853 0 0 0 0
-0.02146385 0.05496325 0.27454227 0 0 0 0
0.00149627 0.06810454 0.02986529 0 0 0 0
-0.04367203 0.09710242 0.21030913 0 0 0 0
-0.00801314 -0.06444893 0.05849768 0 0 0 0
-0.05444244 0.06936994 0.22903676 0 0 0 0
0.06300906 0.00154947 0.19927196 0 0 0 0
0.03097497 0.00449198 0.12915151 0 0 0 0
-0.05212170 0.04466230 0.04989817 0 0 0 0
0.05705138 0.01458221 0.09684552 0 0 0 0
0.04266661 -0.00923519 0.10108988 0 0 0 0
0.05584329 0.04093281 0.15917578 0 0 0 0
-0.00856257 0.11312368 0.18988490 0 0 0 0
0.05092224 0.00135425 0.09994011 0 0 0 0
0.03192673 -0.01884726 0.10087223 0 0 0 0
0.03160233 0.00030967 0.17006582 0 0 0 0
-0.03859396 0.10214762 0.19996615 0 0 0 0
0.05244413 0.02153131 0.12002313 0 0 0 0
0.03152077 -0.06012768 0.00994860 0 0 0 0
0.04602487 0.01761868 0.15584990 0 0 0 0
0.01159038 0.10934086 0.16999513 0 0 0 0
0.05779108 0.02226217 0.09972523 0 0 0 0
0.05598016 0.01834419 0.10345066 0 0 0 0
-0.04391179 0.09698766 0.20054249 0 0 0 0
-0.00844382 -0.06624101 0.04998586 0 0 0 0
0.06154863 0.00226825 0.19026223 0 0 0 0
-0.05519728 0.07113189 0.21965554 0 0 0 0
-0.04403841 -0.01413299 0.09575481 0 0 0 0
0.02197966 0.06509598 0.03992802 0 0 0 0
-0.06483031 -0.01743370 0.03934330 0 0 0 0
-0.05583378 -0.00787204 0.07958496 0 0 0 0
0.04006672 0.04149279 0.26842836 0 0 0 0
-0.02155789 0.10601746 0.16757998 0 0 0 0
0.03804912 0.07793249 0.11199894 0 0 0 0
0.03955111 0.07119737 0.25931555 0 0 0 0
0.05682805 0.06695936 0.21801223 0 0 0 0
0.02198320 -0.01071854 0.11238985 0 0 0 0
0.05600890 -0.00198717 0.08365431 0 0 0 0
-0.03889425 0.10177401 0.20983438 0 0 0 0
0.04871904 0.02325071 0.15042521 0 0 0 0
0.02392440 0.09563966 0.13766810 0 0 0 0
0.05491768 0.02135509 0.11058375 0 0 0 0
0.02152821 0.09001853 0.12015927 0 0 0 0
0.00154644 -0.06799865 0.01994976 0 0 0 0
-0.04700643 0.06082532 0.09034940 0 0 0 0
0.04187015 0.01173529 0.13016689 0 0 0 0
-0.05876489 0.01190372 0.00003368 0 0 0 0
0.05155418 0.01164136 0.11005870 0 0 0 0
-0.03867003 0.01197984 0.15028907 0 0 0 0
0.03719287 0.05736116 0.02015108 0 0 0 0
0.00175723 -0.02255067 0.10459969 0 0 0 0
0.02547720 0.08625936 0.11633266 0 0 0 0
-0.04299460 0.08634197 0.24427287 0 0 0 0
0.04583080 0.01758055 0.13289151 0 0 0 0
0.01036615 0.10744235 0.23639305 0 0 0 0
0.02481198 -0.06262232 0.04034719 0 0 0 0
0.06516425 0.02167478 0.22979963 0 0 0 0
0.04796973 -0.02558650 0.07779758 0 0 0 0
0.01153538 0.10018276 0.13995418 0 0 0 0
-0.03704853 0.09911098 0.17027327 0 0 0 0
0.03784640 0.05869386 0.26585329 0 0 0 0
0.02880117 0.08783660 0.12222978 0 0 0 0
0.03725734 0.05707888 0.00344896 0 0 0 0
0.04255733 0.07257127 0.10954703 0 0 0 0
-0.06376676 -0.02360717 0.01920277 0 0 0 0
0.05272392 0.03150500 0.13996002 0 0 0 0
0.05657177 0.03577373 0.11539608 0 0 0 0
-0.06143817 0.05203741 0.20997088 0 0 0 0
-0.04030732 -0.04008038 0.07114927 0 0 0 0
0.02142053 0.06888331 0.06049274 0 0 0 0
0.06129304 0.00025657 0.22007415 0 0 0 0
0.00141878 0.00024777 0.27010891 0 0 0 0
0.04018924 0.09069012 0.15037489 0 0 0 0
-0.06672756 -0.00843705 0.04003011 0 0 0 0
-0.05891088 -0.01834964 0.06011644 0 0 0 0
0.03923275 0.05127866 0.26710108 0 0 0 0
0.03260502 0.08432073 0.11936653 0 0 0 0
-0.00839403 -0.06732128 0.03998219 0 0 0 0
0.05834509 0.00305268 0.18175423 0 0 0 0
0.04198990 0.00031586 0.23964745 0 0 0 0
0.01227882 0.09559400 0.12806879 0 0 0 0
-0.00852776 -0.00838601 0.00003348 0 0 0 0
-0.04659945 0.07112247 0.25049534 0 0 0 0
0.03975093 0.07978249 0.12035398 0 0 0 0
-0.01875525 0.09426337 0.25303477 0 0 0 0
-0.06006872 0.03184788 0.00986361 0 0 0 0
0.05559887 0.05151301 0.13005511 0 0 0 0
0.01151017 0.08107762 0.08998379 0 0 0 0
-0.04712613 0.05050019 0.05015421 0 0 0 0
0.05449081 -0.04070361 0.02012968 0 0 0 0
-0.05287458 0.05642969 0.10651823 0 0 0 0
0.06345429 0.04167611 0.20986345 0 0 0 0
0.04442476 0.07437502 0.11944300 0 0 0 0
0.05455095 -0.04052319 0.00982341 0 0 0 0
-0.06011484 0.03184620 0.02000021 0 0 0 0
-0.05252830 0.05548254 0.09895575 0 0 0 0
0.06315599 0.04152249 0.21986327 0 0 0 0
0.02192860 -0.00139780 0.12283071 0 0 0 0
0.05550238 0.05194312 0.11980185 0 0 0 0
0.02936029 -0.01472011 0.10632801 0 0 0 0
0.05999026 0.03183762 0.03001315 0 0 0 0
0.02752056 0.03926942 0.27544764 0 0 0 0
0.00134855 0.00418573 0.14036065 0 0 0 0
-0.04654885 0.00205969 0.10894463 0 0 0 0
0.03381548 0.00272566 0.27303469 0 0 0 0
0.03945962 -0.01642514 0.09798895 0 0 0 0
-0.03770146 -0.00709778 0.10875928 0 0 0 0
-0.00850372 0.00025924 0.19014446 0 0 0 0
0.03173210 -0.00052266 0.12004914 0 0 0 0
0.04725353 0.01564797 0.12693731 0 0 0 0
0.05180220 0.07201860 0.14985715 0 0 0 0
0.04551402 0.07582739 0.12761427 0 0 0 0
0.05085115 0.06192189 0.11004639 0 0 0 0
0.03371922 0.00779266 0.13290651 0 0 0 0
0.02744309 0.00649647 0.13658468 0 0 0 0
-0.05065023 0.07178015 0.24002655 0 0 0 0
0.02542374 0.06620581 0.05701367 0 0 0 0
0.04147538 0.08179611 0.13014524 0 0 0 0
0.04919709 0.07152693 0.13025573 0 0 0 0
0.04994595 0.02182094 0.12991530 0 0 0 0
-0.01830684 0.11163380 0.20997110 0 0 0 0
-0.01842467 0.01175564 0.28077176 0 0 0 0
0.05343852 0.06180657 0.12988287 0 0 0 0
0.05740075 0.03226819 0.17163195 0 0 0 0
0.05385691 0.03163961 0.12989992 0 0 0 0
0.06517409 0.03175563 0.20997770 0 0 0 0
0.01156477 0.00174882 0.14961997 0 0 0 0
0.03168879 -0.02829107 0.00003346 0 0 0 0
-0.06112231 0.05144304 0.21991633 0 0 0 0
0.05146514 -0.02858074 0.00003345 0 0 0 0
-0.04969730 0.06143026 0.25062481 0 0 0 0
-0.03733147 -0.03705712 0.07911046 0 0 0 0
0.02190509 0.07134487 0.07007422 0 0 0 0
0.03882008 0.08865443 0.14070386 0 0 0 0
-0.04812128 -0.04802473 0.03000586 0 0 0 0
0.05224790 0.06217627 0.11998089 0 0 0 0
0.03190930 0.00906043 0.14043239 0 0 0 0
0.05916611 -0.00826862 0.06997168 0 0 0 0
0.05082181 -0.00831701 0.09015163 0 0 0 0
0.02173757 0.00311961 0.15003684 0 0 0 0
0.05058867 0.07182995 0.13992898 0 0 0 0
0.06255800 0.00123219 0.23064144 0 0 0 0
0.06700415 0.01010345 0.03959154 0 0 0 0
-0.05882513 0.06191180 0.20000458 0 0 0 0
-0.04584548 -0.04572193 0.04928388 0 0 0 0
0.05421682 0.06177494 0.13984868 0 0 0 0
-0.00867114 0.10965888 0.16999799 0 0 0 0
-0.05867898 0.00030459 0.21954849 0 0 0 0
0.05715657 0.00376060 0.08739883 0 0 0 0
-0.02738522 0.07006745 0.26687121 0 0 0 0
-0.04104716 0.00942871 0.15747397 0 0 0 0
0.03360504 0.09499536 0.14903018 0 0 0 0
-0.02875507 -0.00858223 0.00003351 0 0 0 0
0.05820109 0.06156543 0.18999159 0 0 0 0
0.03292990 0.00864559 0.14889406 0 0 0 0
0.05607812 0.04600070 0.08873948 0 0 0 0
0.06333779 0.01193479 0.23989111 0 0 0 0
0.05621675 0.00789057 0.09403163 0 0 0 0
0.03911508 -0.03603110 0.07817703 0 0 0 0
0.05887591 0.00169439 0.07983670 0 0 0 0
-0.03013282 0.07404630 0.26368454 0 0 0 0
0.03541090 0.09599671 0.15658210 0 0 0 0
-0.05306742 0.07546912 0.22105996 0 0 0 0
0.04467463 0.08470188 0.14928310 0 0 0 0
0.05888339 0.05176416 0.18006128 0 0 0 0
0.00157428 -0.02817380 0.10032918 0 0 0 0
0.04808077 0.07997771 0.15030478 0 0 0 0
0.03188633 0.07325096 0.08985217 0 0 0 0
0.05557059 0.04503994 0.07948747 0 0 0 0
0.05577154 0.01183263 0.25400019 0 0 0 0
0.06581087 0.01228176 0.23130132 0 0 0 0
0.03210514 0.00117385 0.15915120 0 0 0 0
-0.03205581 -0.05223653 0.06268653 0 0 0 0
0.01971739 0.10779025 0.17108713 0 0 0 0
0.05696749 0.05869783 0.17132322 0 0 0 0
0.05478039 0.06208770 0.14999026 0 0 0 0
0.05263319 0.03160881 0.14997000 0 0 0 0
0.03512549 -0.01249007 0.10442703 0 0 0 0
0.06052849 0.03200013 0.06995474 0 0 0 0
-0.02834536 0.00025766 0.19985987 0 0 0 0
-0.03237113 0.08592959 0.25450242 0 0 0 0
0.06019137 0.05161743 0.19013704 0 0 0 0
-0.02734262 0.03138741 0.27665675 0 0 0 0
-0.03812679 -0.05637106 0.01000189 0 0 0 0
0.03190078 0.04200069 0.27304754 0 0 0 0
-0.03901771 0.08283705 0.25212723 0 0 0 0
-0.00847212 0.04163889 0.28001919 0 0 0 0
0.00139076 0.00144006 0.14930274 0 0 0 0
0.04133924 0.00030673 0.19012606 0 0 0 0
0.05793365 0.04129712 0.08997168 0 0 0 0
0.04149480 0.09213565 0.16005805 0 0 0 0
-0.01867406 0.00027010 0.21954411 0 0 0 0
0.02349558 0.10574675 0.16869983 0 0 0 0
0.05297823 0.05226396 0.08988272 0 0 0 0
0.04567312 0.08585504 0.15858269 0 0 0 0
0.06499650 0.03177255 0.21997003 0 0 0 0
0.01156751 0.00026197 0.18003443 0 0 0 0
0.04285708 0.05380060 0.04001062 0 0 0 0
0.05434527 0.05234884 0.09984630 0 0 0 0
0.04645582 0.08651917 0.16557446 0 0 0 0
0.04971923 0.03141591 0.26001841 0 0 0 0
0.04023693 -0.04685695 0.05950630 0 0 0 0
-0.05462854 0.03282788 0.16084725 0 0 0 0
0.00131878 0.00026126 0.18008998 0 0 0 0
0.02590619 0.10613556 0.17591320 0 0 0 0
0.02871295 0.10754852 0.19037908 0 0 0 0
-0.05211642 -0.03091802 0.06152230 0 0 0 0
0.04883334 0.08129656 0.16007844 0 0 0 0
-0.05235558 0.07374976 0.23077677 0 0 0 0
-0.01842050 0.03165526 0.27955583 0 0 0 0
0.04341366 0.08311507 0.13963859 0 0 0 0
-0.00840719 0.00026716 0.17007636 0 0 0 0
0.04660460 0.02828190 0.26526406 0 0 0 0
0.04891296 -0.04598493 0.03955944 0 0 0 0
-0.06228232 0.01166687 0.18831630 0 0 0 0
-0.01847155 0.02168127 0.28036785 0 0 0 0
0.04791422 0.01335211 0.16244151 0 0 0 0
-0.04785790 0.05139421 0.06018313 0 0 0 0
0.05457084 -0.04057036 0.03001129 0 0 0 0
-0.06293509 0.02542014 0.00949272 0 0 0 0
0.05971528 0.04159393 0.18003789 0 0 0 0
-0.06443097 0.00235008 0.05935766 0 0 0 0
0.02812391 0.10745141 0.21860294 0 0 0 0
-0.02422472 0.04819303 0.27531883 0 0 0 0
0.06709167 0.01077113 0.02023541 0 0 0 0
0.05868288 0.00310967 0.24952042 0 0 0 0
0.05618616 0.06616107 0.22320457 0 0 0 0
0.00144704 -0.05955540 0.06997395 0 0 0 0
0.05810969 0.06136617 0.21976982 0 0 0 0
-0.04756237 0.02173518 0.15009487 0 0 0 0
0.03149997 0.10246496 0.16996025 0 0 0 0
-0.04517187 0.08995436 0.22937202 0 0 0 0
-0.00984758 -0.02329558 0.10505368 0 0 0 0
0.05674208 0.03793570 0.01049146 0 0 0 0
0.04192231 0.00033151 0.26024222 0 0 0 0
-0.05054170 0.05300215 0.07974152 0 0 0 0
0.05673842 0.04437165 0.16281328 0 0 0 0
-0.06365556 -0.02457492 0.00003349 0 0 0 0
0.05405899 0.03162274 0.15999605 0 0 0 0
0.02923188 0.06920366 0.26633856 0 0 0 0
-0.05816131 0.01184622 0.08999909 0 0 0 0
0.01142908 0.11285950 0.18996784 0 0 0 0
-0.05863713 0.00027200 0.19988559 0 0 0 0
-0.02922034 -0.04974441 0.07078389 0 0 0 0
0.02151813 0.10895224 0.18009669 0 0 0 0
0.04128291 0.00028850 0.18009950 0 0 0 0
0.02956694 -0.03545281 0.08721373 0 0 0 0
0.05791569 0.04017910 0.08026589 0 0 0 0
0.04327627 0.09248663 0.16972484 0 0 0 0
-0.05027047 0.02147132 0.15988550 0 0 0 0
0.03213239 0.10419575 0.17973094 0 0 0 0
0.05589831 0.06345308 0.16942140 0 0 0 0
0.04025818 0.08161093 0.25142032 0 0 0 0
-0.00833527 0.06729149 0.00303250 0 0 0 0
0.06094295 0.03144435 0.24011229 0 0 0 0
0.02175741 0.11097091 0.19993973 0 0 0 0
0.04502172 0.09405588 0.21008670 0 0 0 0
-0.06444260 0.03150580 0.20014957 0 0 0 0
0.05206163 0.01170542 0.16998689 0 0 0 0
0.05021565 0.00319583 0.17076896 0 0 0 0
-0.05449984 0.05965193 0.13033836 0 0 0 0
0.06189989 0.00203857 0.23966220 0 0 0 0
0.06665525 0.00881417 0.04693716 0 0 0 0
-0.05420934 0.01476368 0.10663484 0 0 0 0
0.04684549 0.01848077 0.26536134 0 0 0 0
-0.04829262 0.00025603 0.20961803 0 0 0 0
0.04204101 0.06221567 0.07987557 0 0 0 0
0.04758203 0.08839650 0.18053363 0 0 0 0
0.04409738 0.09339207 0.17976530 0 0 0 0
0.05581560 0.01046273 0.17591786 0 0 0 0
0.04125544 0.01165303 0.26987496 0 0 0 0
0.01196481 0.08419573 0.26330361 0 0 0 0
0.06074834 -0.02821334 0.00186946 0 0 0 0
-0.05470510 0.01236441 0.17334284 0 0 0 0
0.06226600 0.02176077 0.24007493 0 0 0 0
0.05217583 0.00120397 0.17923050 0 0 0 0
0.05748972 0.06091763 0.18035784 0 0 0 0
-0.05862737 0.00198160 0.00003357 0 0 0 0
0.05623426 0.06528482 0.17734021 0 0 0 0
-0.06351174 0.00638919 0.06539126 0 0 0 0
0.02908272 0.10800697 0.20976731 0 0 0 0
-0.04973277 0.02164568 0.13009296 0 0 0 0
0.03366484 0.10488511 0.18958996 0 0 0 0
0.05459431 0.07187987 0.21995892 0 0 0 0
0.05653745 0.06803283 0.18282560 0 0 0 0
0.04498822 0.08339166 0.24082591 0 0 0 0
0.05776449 0.03112625 0.24768941 0 0 0 0
0.02942929 0.10793072 0.19995669 0 0 0 0
0.05459759 0.07185660 0.18000469 0 0 0 0
-0.05332293 0.03555240 0.25458083 0 0 0 0
-0.00781545 0.10759527 0.16176356 0 0 0 0
0.04552790 -0.01218874 0.09363841 0 0 0 0
0.05864708 0.01208665 0.18073498 0 0 0 0
0.00135066 -0.05483416 0.07693749 0 0 0 0
-0.03221297 0.03268138 0.27451274 0 0 0 0
-0.03755973 -0.05603851 0.00180883 0 0 0 0
0.05865532 0.06181782 0.20997944 0 0 0 0
